192.000000 -80.000000 232.000000
191.783705 -78.161491 231.242967
191.567410 -76.322981 230.485933
191.351114 -74.484472 229.728900
191.134819 -72.645962 228.971867
190.918524 -70.807453 228.214834
190.702229 -68.968943 227.457800
190.485933 -67.130434 226.700767
190.269638 -65.291924 225.943734
190.053343 -63.453415 225.186700
189.837048 -61.614906 224.429667
189.620752 -59.776396 223.672634
189.404457 -57.937887 222.915600
189.188162 -56.099377 222.158567
188.971867 -54.260868 221.401534
188.755572 -52.422358 220.644501
188.539276 -50.583849 219.887467
188.322981 -48.745340 219.130434
188.106686 -46.906830 218.373401
187.890391 -45.068321 217.616367
187.674095 -43.229811 216.859334
187.457800 -41.391302 216.102301
187.241505 -39.552792 215.345267
187.025210 -37.714283 214.588234
186.808915 -35.875773 213.831201
186.592619 -34.037264 213.074168
186.376324 -32.198755 212.317134
186.160029 -30.360245 211.560101
185.943734 -28.521736 210.803068
185.727438 -26.683226 210.046034
185.511143 -24.844717 209.289001
185.294848 -23.006207 208.531968
185.078553 -21.167698 207.774934
184.862257 -19.329188 207.017901
184.645962 -17.490679 206.260868
184.429667 -15.652170 205.503835
184.000000 -12.000000 204.000000
182.185379 -12.840922 204.000000
180.370758 -13.681844 204.000000
178.556136 -14.522766 204.000000
176.741515 -15.363688 204.000000
174.926894 -16.204610 204.000000
173.112273 -17.045532 204.000000
171.297652 -17.886454 204.000000
169.483030 -18.727376 204.000000
167.668409 -19.568298 204.000000
165.853788 -20.409220 204.000000
164.039167 -21.250142 204.000000
162.224545 -22.091064 204.000000
160.409924 -22.931986 204.000000
158.595303 -23.772908 204.000000
156.780682 -24.613830 204.000000
154.966061 -25.454752 204.000000
153.151439 -26.295674 204.000000
151.336818 -27.136596 204.000000
149.522197 -27.977518 204.000000
147.707576 -28.818441 204.000000
145.892955 -29.659363 204.000000
144.078333 -30.500285 204.000000
142.263712 -31.341207 204.000000
140.449091 -32.182129 204.000000
138.634470 -33.023051 204.000000
136.819848 -33.863973 204.000000
135.005227 -34.704895 204.000000
133.190606 -35.545817 204.000000
131.375985 -36.386739 204.000000
129.561364 -37.227661 204.000000
127.746742 -38.068583 204.000000
125.932121 -38.909505 204.000000
124.117500 -39.750427 204.000000
122.302879 -40.591349 204.000000
120.488258 -41.432271 204.000000
118.673636 -42.273193 204.000000
116.859015 -43.114115 204.000000
115.044394 -43.955037 204.000000
113.229773 -44.795959 204.000000
111.415151 -45.636881 204.000000
109.600530 -46.477803 204.000000
107.785909 -47.318725 204.000000
105.971288 -48.159647 204.000000
104.156667 -49.000569 204.000000
102.342045 -49.841491 204.000000
100.527424 -50.682413 204.000000
98.712803 -51.523335 204.000000
96.898182 -52.364257 204.000000
95.083561 -53.205179 204.000000
93.268939 -54.046101 204.000000
91.454318 -54.887023 204.000000
89.639697 -55.727945 204.000000
87.825076 -56.568867 204.000000
86.010454 -57.409789 204.000000
84.195833 -58.250711 204.000000
82.381212 -59.091633 204.000000
80.566591 -59.932555 204.000000
78.751970 -60.773477 204.000000
76.937348 -61.614400 204.000000
75.122727 -62.455322 204.000000
73.308106 -63.296244 204.000000
71.493485 -64.137166 204.000000
69.678864 -64.978088 204.000000
67.864242 -65.819010 204.000000
66.049621 -66.659932 204.000000
64.235000 -67.500854 204.000000
62.420379 -68.341776 204.000000
60.605758 -69.182698 204.000000
58.791136 -70.023620 204.000000
56.976515 -70.864542 204.000000
55.161894 -71.705464 204.000000
53.347273 -72.546386 204.000000
51.532651 -73.387308 204.000000
49.718030 -74.228230 204.000000
47.903409 -75.069152 204.000000
46.088788 -75.910074 204.000000
44.274167 -76.750996 204.000000
42.459545 -77.591918 204.000000
40.644924 -78.432840 204.000000
38.830303 -79.273762 204.000000
37.015682 -80.114684 204.000000
35.201061 -80.955606 204.000000
33.386439 -81.796528 204.000000
31.571818 -82.637450 204.000000
29.757197 -83.478372 204.000000
27.942576 -84.319294 204.000000
26.127954 -85.160216 204.000000
24.313333 -86.001138 204.000000
22.498712 -86.842060 204.000000
20.000000 -88.000000 204.000000
19.833909 -89.993092 204.000000
19.667818 -91.986183 204.000000
19.501727 -93.979275 204.000000
19.335636 -95.972366 204.000000
19.169545 -97.965458 204.000000
19.003454 -99.958549 204.000000
18.837363 -101.951641 204.000000
18.671272 -103.944732 204.000000
18.505181 -105.937824 204.000000
18.339090 -107.930915 204.000000
18.172999 -109.924007 204.000000
18.006908 -111.917098 204.000000
17.840818 -113.910190 204.000000
17.674727 -115.903281 204.000000
17.508636 -117.896373 204.000000
17.342545 -119.889464 204.000000
17.176454 -121.882556 204.000000
17.010363 -123.875647 204.000000
16.844272 -125.868739 204.000000
16.678181 -127.861830 204.000000
16.512090 -129.854922 204.000000
16.345999 -131.848013 204.000000
16.179908 -133.841105 204.000000
16.013817 -135.834196 204.000000
15.847726 -137.827288 204.000000
15.681635 -139.820379 204.000000
15.515544 -141.813471 204.000000
15.349453 -143.806562 204.000000
15.183362 -145.799654 204.000000
15.017271 -147.792745 204.000000
14.851180 -149.785837 204.000000
14.685089 -151.778929 204.000000
14.518998 -153.772020 204.000000
14.352907 -155.765112 204.000000
14.186816 -157.758203 204.000000
14.020725 -159.751295 204.000000
13.854634 -161.744386 204.000000
13.688544 -163.737478 204.000000
13.522453 -165.730569 204.000000
13.356362 -167.723661 204.000000
13.190271 -169.716752 204.000000
13.024180 -171.709844 204.000000
12.858089 -173.702935 204.000000
12.691998 -175.696027 204.000000
12.525907 -177.689118 204.000000
12.359816 -179.682210 204.000000
12.193725 -181.675301 204.000000
12.000000 -184.000000 204.000000
11.080292 -185.775989 204.000000
10.160583 -187.551978 204.000000
9.240875 -189.327966 204.000000
8.321166 -191.103955 204.000000
7.401458 -192.879944 204.000000
6.481749 -194.655933 204.000000
5.562041 -196.431922 204.000000
4.642332 -198.207911 204.000000
3.722624 -199.983899 204.000000
2.802915 -201.759888 204.000000
1.883207 -203.535877 204.000000
0.963498 -205.311866 204.000000
0.043790 -207.087855 204.000000
-0.875919 -208.863843 204.000000
-1.795627 -210.639832 204.000000
-2.715336 -212.415821 204.000000
-3.635044 -214.191810 204.000000
-4.554753 -215.967799 204.000000
-5.474461 -217.743788 204.000000
-6.394170 -219.519776 204.000000
-7.313878 -221.295765 204.000000
-8.233587 -223.071754 204.000000
-9.153295 -224.847743 204.000000
-10.073004 -226.623732 204.000000
-10.992712 -228.399720 204.000000
-11.912421 -230.175709 204.000000
-12.832129 -231.951698 204.000000
-13.751838 -233.727687 204.000000
-14.671546 -235.503676 204.000000
-15.591255 -237.279665 204.000000
-16.510963 -239.055653 204.000000
-17.430672 -240.831642 204.000000
-18.350380 -242.607631 204.000000
-19.270089 -244.383620 204.000000
-20.189797 -246.159609 204.000000
-21.109506 -247.935597 204.000000
-22.029214 -249.711586 204.000000
-22.948923 -251.487575 204.000000
-23.868631 -253.263564 204.000000
-24.788340 -255.039553 204.000000
-25.708048 -256.815542 204.000000
-26.627757 -258.591530 204.000000
-27.547465 -260.367519 204.000000
-28.467174 -262.143508 204.000000
-29.386882 -263.919497 204.000000
-30.306591 -265.695486 204.000000
-31.226299 -267.471474 204.000000
-32.146008 -269.247463 204.000000
-33.065716 -271.023452 204.000000
-33.985425 -272.799441 204.000000
-34.905133 -274.575430 204.000000
-35.824842 -276.351419 204.000000
-36.744550 -278.127407 204.000000
-37.664259 -279.903396 204.000000
-38.583967 -281.679385 204.000000
-39.503676 -283.455374 204.000000
-40.423384 -285.231363 204.000000
-41.343093 -287.007351 204.000000
-42.262801 -288.783340 204.000000
-43.182510 -290.559329 204.000000
-44.102218 -292.335318 204.000000
-45.021927 -294.111307 204.000000
-46.000000 -296.000000 204.000000
-46.498082 -297.936986 204.000000
-46.996164 -299.873972 204.000000
-47.494246 -301.810958 204.000000
-47.992328 -303.747943 204.000000
-48.490410 -305.684929 204.000000
-48.988492 -307.621915 204.000000
-49.486575 -309.558901 204.000000
-49.984657 -311.495887 204.000000
-50.482739 -313.432873 204.000000
-50.980821 -315.369859 204.000000
-51.478903 -317.306845 204.000000
-51.976985 -319.243830 204.000000
-52.475067 -321.180816 204.000000
-52.973149 -323.117802 204.000000
-53.471231 -325.054788 204.000000
-53.969313 -326.991774 204.000000
-54.467395 -328.928760 204.000000
-54.965477 -330.865746 204.000000
-55.463560 -332.802731 204.000000
-55.961642 -334.739717 204.000000
-56.459724 -336.676703 204.000000
-56.957806 -338.613689 204.000000
-57.455888 -340.550675 204.000000
-57.953970 -342.487661 204.000000
-58.452052 -344.424647 204.000000
-58.950134 -346.361632 204.000000
-59.448216 -348.298618 204.000000
-59.946298 -350.235604 204.000000
-60.444380 -352.172590 204.000000
-60.942462 -354.109576 204.000000
-61.440544 -356.046562 204.000000
-61.938627 -357.983548 204.000000
-62.436709 -359.920534 204.000000
-62.934791 -361.857519 204.000000
-63.432873 -363.794505 204.000000
-64.000000 -366.000000 204.000000
-65.414214 -366.000000 202.585786
-66.828427 -366.000000 201.171573
-68.242641 -366.000000 199.757359
-69.656854 -366.000000 198.343146
-71.071068 -366.000000 196.928932
-72.485281 -366.000000 195.514719
-73.899495 -366.000000 194.100505
-75.313708 -366.000000 192.686292
-76.727922 -366.000000 191.272078
-78.142136 -366.000000 189.857864
-79.556349 -366.000000 188.443651
-80.970563 -366.000000 187.029437
-82.384776 -366.000000 185.615224
-84.000000 -366.000000 184.000000
-84.000000 -366.000000 182.000000
-84.000000 -366.000000 180.000000
-84.000000 -366.000000 178.000000
-84.000000 -366.000000 176.000000
-84.000000 -366.000000 174.000000
-84.000000 -366.000000 172.000000
-84.000000 -366.000000 170.000000
-84.000000 -366.000000 168.000000
-84.000000 -366.000000 166.000000
-84.000000 -366.000000 164.000000
-84.000000 -366.000000 162.000000
-84.000000 -366.000000 160.000000
-84.000000 -366.000000 158.000000
-84.000000 -366.000000 156.000000
-84.000000 -366.000000 152.000000
-84.000000 -366.000000 150.000000
-84.000000 -366.000000 148.000000
-84.000000 -366.000000 144.000000
-84.000000 -367.600000 142.800000
-84.000000 -369.200000 141.600000
-84.000000 -370.800000 140.400000
-84.000000 -372.400000 139.200000
-84.000000 -374.000000 138.000000
-84.000000 -375.600000 136.800000
-84.000000 -377.200000 135.600000
-84.000000 -378.800000 134.400000
-84.000000 -380.400000 133.200000
-84.000000 -382.000000 132.000000
-84.000000 -383.600000 130.800000
-84.000000 -385.200000 129.600000
-84.000000 -386.800000 128.400000
-84.000000 -388.400000 127.200000
-84.000000 -390.000000 126.000000
-84.000000 -391.600000 124.800000
-84.000000 -393.200000 123.600000
-84.000000 -394.800000 122.400000
-84.000000 -396.400000 121.200000
-84.000000 -398.000000 120.000000
-84.000000 -399.600000 118.800000
-84.000000 -401.200000 117.600000
-84.000000 -402.800000 116.400000
-84.000000 -404.400000 115.200000
-84.000000 -406.000000 114.000000
-84.000000 -407.600000 112.800000
-84.000000 -409.200000 111.600000
-84.000000 -410.800000 110.400000
-84.000000 -412.400000 109.200000
-84.000000 -414.000000 108.000000
-84.000000 -415.600000 106.800000
-84.000000 -417.200000 105.600000
-84.000000 -418.800000 104.400000
-84.000000 -420.400000 103.200000
-84.000000 -422.000000 102.000000
-84.000000 -423.600000 100.800000
-84.000000 -425.200000 99.600000
-84.000000 -426.800000 98.400000
-84.000000 -430.000000 96.000000
-84.000000 -430.071383 94.001274
-84.000000 -430.142766 92.002549
-84.000000 -430.214149 90.003823
-84.000000 -430.285532 88.005097
-84.000000 -430.356915 86.006371
-84.000000 -430.428298 84.007646
-84.000000 -430.499681 82.008920
-84.000000 -430.571064 80.010194
-84.000000 -430.642448 78.011469
-84.000000 -430.713831 76.012743
-84.000000 -430.785214 74.014017
-84.000000 -430.856597 72.015291
-84.000000 -430.927980 70.016566
-84.000000 -430.999363 68.017840
-84.000000 -431.070746 66.019114
-84.000000 -431.142129 64.020389
-84.000000 -431.213512 62.021663
-84.000000 -431.284895 60.022937
-84.000000 -431.356278 58.024212
-84.000000 -431.427661 56.025486
-84.000000 -431.499044 54.026760
-84.000000 -431.570427 52.028034
-84.000000 -431.641810 50.029309
-84.000000 -431.713193 48.030583
-84.000000 -431.784577 46.031857
-84.000000 -431.855960 44.033132
-84.000000 -431.927343 42.034406
