2076.000000 -433.984773 678.643283
2076.000000 -435.984691 678.625139
2076.000000 -437.984609 678.606994
2076.000000 -439.984526 678.588850
2076.000000 -441.984444 678.570706
2076.000000 -443.984362 678.552561
2076.000000 -445.984279 678.534417
2076.000000 -447.984197 678.516272
2076.000000 -449.984115 678.498128
2076.000000 -451.984033 678.479984
2076.000000 -453.983950 678.461839
2076.000000 -455.983868 678.443695
2076.000000 -457.983786 678.425550
2076.000000 -459.983703 678.407406
2076.000000 -461.983621 678.389262
2076.000000 -463.983539 678.371117
2076.000000 -465.983456 678.352973
2076.000000 -467.983374 678.334828
2076.000000 -469.983292 678.316684
2076.000000 -471.983209 678.298539
2076.000000 -473.983127 678.280395
2076.000000 -475.983045 678.262251
2076.000000 -477.982963 678.244106
2076.000000 -479.982880 678.225962
2076.000000 -481.982798 678.207817
2076.000000 -483.982716 678.189673
2076.000000 -485.982633 678.171529
2076.000000 -487.982551 678.153384
2076.000000 -489.982469 678.135240
2076.000000 -491.982386 678.117095
2076.000000 -493.982304 678.098951
2076.000000 -495.982222 678.080806
2076.000000 -497.982139 678.062662
2076.000000 -499.982057 678.044518
2076.000000 -501.981975 678.026373
2076.000000 -503.981893 678.008229
2076.000000 -505.981810 677.990084
2076.000000 -507.981728 677.971940
2076.000000 -509.981646 677.953796
2076.000000 -511.981563 677.935651
2076.000000 -513.981481 677.917507
2076.000000 -515.981399 677.899362
2076.000000 -517.981316 677.881218
2076.000000 -519.981234 677.863073
2076.000000 -521.981152 677.844929
2076.000000 -523.981069 677.826785
2076.000000 -525.980987 677.808640
2076.000000 -527.980905 677.790496
2076.000000 -529.980823 677.772351
2076.000000 -531.980740 677.754207
2076.000000 -533.980658 677.736063
2076.000000 -535.980576 677.717918
2076.000000 -537.980493 677.699774
2076.000000 -539.980411 677.681629
2076.000000 -541.980329 677.663485
2076.000000 -543.980246 677.645341
2076.000000 -545.980164 677.627196
2076.000000 -547.980082 677.609052
2076.000000 -549.979999 677.590907
2076.000000 -551.979917 677.572763
2076.000000 -553.979835 677.554618
2076.000000 -555.979753 677.536474
2076.000000 -557.979670 677.518330
2076.000000 -559.979588 677.500185
2076.000000 -561.979506 677.482041
2076.000000 -563.979423 677.463896
2076.000000 -565.979341 677.445752
2076.000000 -567.979259 677.427608
2076.000000 -569.979176 677.409463
2076.000000 -571.979094 677.391319
2076.000000 -573.979012 677.373174
2076.000000 -575.978930 677.355030
2076.000000 -577.978847 677.336885
2076.000000 -579.978765 677.318741
2076.000000 -581.978683 677.300597
2076.000000 -583.978600 677.282452
2076.000000 -585.978518 677.264308
2076.000000 -587.978436 677.246163
2076.000000 -589.978353 677.228019
2076.000000 -591.978271 677.209875
2076.000000 -593.978189 677.191730
2076.000000 -595.978106 677.173586
2076.000000 -597.978024 677.155441
2076.000000 -599.977942 677.137297
2076.000000 -601.977860 677.119152
2076.000000 -603.977777 677.101008
2076.000000 -605.977695 677.082864
2076.000000 -607.977613 677.064719
2076.000000 -609.977530 677.046575
2076.000000 -611.977448 677.028430
2076.000000 -613.977366 677.010286
2076.000000 -615.977283 676.992142
2076.000000 -617.977201 676.973997
2076.000000 -619.977119 676.955853
2076.000000 -621.977036 676.937708
2076.000000 -623.976954 676.919564
2076.000000 -625.976872 676.901420
2076.000000 -627.976790 676.883275
2076.000000 -629.976707 676.865131
2076.000000 -631.976625 676.846986
2076.000000 -633.976543 676.828842
2076.000000 -635.976460 676.810697
2076.000000 -637.976378 676.792553
2076.000000 -639.976296 676.774409
2076.000000 -641.976213 676.756264
2076.000000 -643.976131 676.738120
2076.000000 -645.976049 676.719975
2076.000000 -647.975966 676.701831
2076.000000 -649.975884 676.683687
2076.000000 -651.975802 676.665542
2076.000000 -653.975720 676.647398
2076.000000 -655.975637 676.629253
2076.000000 -657.975555 676.611109
2076.000000 -659.975473 676.592964
2076.000000 -661.975390 676.574820
2076.000000 -663.975308 676.556676
2076.000000 -665.975226 676.538531
2076.000000 -667.975143 676.520387
2076.000000 -669.975061 676.502242
2076.000000 -671.974979 676.484098
2076.000000 -673.974896 676.465954
2076.000000 -675.974814 676.447809
2076.000000 -677.974732 676.429665
2076.000000 -679.974650 676.411520
2076.000000 -681.974567 676.393376
2076.000000 -683.974485 676.375231
2076.000000 -685.974403 676.357087
2076.000000 -687.974320 676.338943
2076.000000 -689.974238 676.320798
2076.000000 -691.974156 676.302654
2076.000000 -693.974073 676.284509
2076.000000 -695.973991 676.266365
2076.000000 -697.973909 676.248221
2076.000000 -699.973826 676.230076
2076.000000 -701.973744 676.211932
2076.000000 -703.973662 676.193787
2076.000000 -705.973580 676.175643
2076.000000 -707.973497 676.157499
2076.000000 -709.973415 676.139354
2076.000000 -711.973333 676.121210
2076.000000 -713.973250 676.103065
2076.000000 -715.973168 676.084921
2076.000000 -717.973086 676.066776
2076.000000 -719.973003 676.048632
2076.000000 -721.972921 676.030488
2076.000000 -723.972839 676.012343
2076.000000 -725.972757 675.994199
2076.000000 -727.972674 675.976054
2076.000000 -729.972592 675.957910
2076.000000 -731.972510 675.939766
2076.000000 -733.972427 675.921621
2076.000000 -735.972345 675.903477
2076.000000 -737.972263 675.885332
2076.000000 -739.972180 675.867188
2076.000000 -741.972098 675.849043
2076.000000 -743.972016 675.830899
2076.000000 -745.971933 675.812755
2076.000000 -747.971851 675.794610
2076.000000 -749.971769 675.776466
2076.000000 -751.971687 675.758321
2076.000000 -753.971604 675.740177
2076.000000 -755.971522 675.722033
2076.000000 -757.971440 675.703888
2076.000000 -759.971357 675.685744
2076.000000 -761.971275 675.667599
2076.000000 -763.971193 675.649455
2076.000000 -765.971110 675.631310
2076.000000 -767.971028 675.613166
2076.000000 -769.970946 675.595022
2076.000000 -771.970863 675.576877
2076.000000 -773.970781 675.558733
2076.000000 -775.970699 675.540588
2076.000000 -777.970617 675.522444
2076.000000 -779.970534 675.504300
2076.000000 -781.970452 675.486155
2076.000000 -783.970370 675.468011
2076.000000 -785.970287 675.449866
2076.000000 -787.970205 675.431722
2076.000000 -789.970123 675.413578
2076.000000 -791.970040 675.395433
2076.000000 -793.969958 675.377289
2076.000000 -795.969876 675.359144
2076.000000 -797.969793 675.341000
2076.000000 -799.969711 675.322855
2076.000000 -801.969629 675.304711
2076.000000 -803.969547 675.286567
2076.000000 -805.969464 675.268422
2076.000000 -807.969382 675.250278
2076.000000 -809.969300 675.232133
2076.000000 -811.969217 675.213989
2076.000000 -813.969135 675.195845
2076.000000 -815.969053 675.177700
2076.000000 -817.968970 675.159556
2076.000000 -819.968888 675.141411
2076.000000 -821.968806 675.123267
2076.000000 -823.968723 675.105122
2076.000000 -825.968641 675.086978
2076.000000 -827.968559 675.068834
2076.000000 -829.968477 675.050689
2076.000000 -831.968394 675.032545
2076.000000 -833.968312 675.014400
2076.000000 -835.968230 674.996256
2076.000000 -837.968147 674.978112
2076.000000 -839.968065 674.959967
2076.000000 -841.967983 674.941823
2076.000000 -843.967900 674.923678
2076.000000 -845.967818 674.905534
2076.000000 -847.967736 674.887389
2076.000000 -849.967653 674.869245
2076.000000 -851.967571 674.851101
2076.000000 -853.967489 674.832956
2076.000000 -855.967407 674.814812
2076.000000 -857.967324 674.796667
2076.000000 -859.967242 674.778523
2076.000000 -861.967160 674.760379
2076.000000 -863.967077 674.742234
2076.000000 -865.966995 674.724090
2076.000000 -867.966913 674.705945
2076.000000 -869.966830 674.687801
2076.000000 -871.966748 674.669657
2076.000000 -873.966666 674.651512
2076.000000 -875.966584 674.633368
2076.000000 -877.966501 674.615223
2076.000000 -879.966419 674.597079
2076.000000 -881.966337 674.578934
2076.000000 -883.966254 674.560790
2076.000000 -885.966172 674.542646
2076.000000 -887.966090 674.524501
2076.000000 -889.966007 674.506357
2076.000000 -891.965925 674.488212
2076.000000 -893.965843 674.470068
2076.000000 -895.965760 674.451924
2076.000000 -897.965678 674.433779
2076.000000 -899.965596 674.415635
2076.000000 -901.965514 674.397490
2076.000000 -903.965431 674.379346
2076.000000 -905.965349 674.361201
2076.000000 -907.965267 674.343057
2076.000000 -909.965184 674.324913
2076.000000 -911.965102 674.306768
2076.000000 -913.965020 674.288624
2076.000000 -915.964937 674.270479
2076.000000 -917.964855 674.252335
2076.000000 -919.964773 674.234191
2076.000000 -921.964690 674.216046
2076.000000 -923.964608 674.197902
2076.000000 -925.964526 674.179757
2076.000000 -927.964444 674.161613
2076.000000 -929.964361 674.143468
2076.000000 -931.964279 674.125324
2076.000000 -933.964197 674.107180
2076.000000 -935.964114 674.089035
2076.000000 -937.964032 674.070891
2076.000000 -939.963950 674.052746
2076.000000 -941.963867 674.034602
2076.000000 -943.963785 674.016458
2076.000000 -945.963703 673.998313
2076.000000 -947.963620 673.980169
2076.000000 -949.963538 673.962024
2076.000000 -951.963456 673.943880
2076.000000 -953.963374 673.925736
2076.000000 -955.963291 673.907591
2076.000000 -957.963209 673.889447
2076.000000 -959.963127 673.871302
2076.000000 -961.963044 673.853158
2076.000000 -963.962962 673.835013
2076.000000 -965.962880 673.816869
2076.000000 -967.962797 673.798725
2076.000000 -969.962715 673.780580
2076.000000 -971.962633 673.762436
2076.000000 -973.962550 673.744291
2076.000000 -975.962468 673.726147
2076.000000 -977.962386 673.708003
2076.000000 -979.962304 673.689858
2076.000000 -981.962221 673.671714
2076.000000 -983.962139 673.653569
2076.000000 -985.962057 673.635425
2076.000000 -987.961974 673.617280
2076.000000 -989.961892 673.599136
2076.000000 -991.961810 673.580992
2076.000000 -993.961727 673.562847
2076.000000 -995.961645 673.544703
2076.000000 -997.961563 673.526558
2076.000000 -999.961480 673.508414
2076.000000 -1001.961398 673.490270
2076.000000 -1003.961316 673.472125
2076.000000 -1005.961234 673.453981
2076.000000 -1007.961151 673.435836
2076.000000 -1009.961069 673.417692
2076.000000 -1011.960987 673.399548
2076.000000 -1013.960904 673.381403
2076.000000 -1015.960822 673.363259
2076.000000 -1017.960740 673.345114
2076.000000 -1019.960657 673.326970
2076.000000 -1021.960575 673.308825
2076.000000 -1023.960493 673.290681
2076.000000 -1025.960411 673.272537
2076.000000 -1027.960328 673.254392
2076.000000 -1029.960246 673.236248
2076.000000 -1031.960164 673.218103
2076.000000 -1033.960081 673.199959
2076.000000 -1035.959999 673.181815
2076.000000 -1037.959917 673.163670
2076.000000 -1039.959834 673.145526
2076.000000 -1041.959752 673.127381
2076.000000 -1043.959670 673.109237
2076.000000 -1045.959587 673.091092
2076.000000 -1047.959505 673.072948
2076.000000 -1049.959423 673.054804
2076.000000 -1051.959341 673.036659
2076.000000 -1053.959258 673.018515
2076.000000 -1055.959176 673.000370
2076.000000 -1057.959094 672.982226
2076.000000 -1059.959011 672.964082
2076.000000 -1061.958929 672.945937
2076.000000 -1063.958847 672.927793
2076.000000 -1065.958764 672.909648
2076.000000 -1067.958682 672.891504
2076.000000 -1069.958600 672.873359
2076.000000 -1071.958517 672.855215
2076.000000 -1073.958435 672.837071
2076.000000 -1075.958353 672.818926
2076.000000 -1077.958271 672.800782
2076.000000 -1079.958188 672.782637
2076.000000 -1081.958106 672.764493
2076.000000 -1083.958024 672.746349
2076.000000 -1085.957941 672.728204
2076.000000 -1087.957859 672.710060
2076.000000 -1089.957777 672.691915
2076.000000 -1091.957694 672.673771
2076.000000 -1093.957612 672.655627
2076.000000 -1095.957530 672.637482
2076.000000 -1097.957447 672.619338
2076.000000 -1099.957365 672.601193
2076.000000 -1101.957283 672.583049
2076.000000 -1103.957201 672.564904
2076.000000 -1105.957118 672.546760
2076.000000 -1107.957036 672.528616
2076.000000 -1109.956954 672.510471
2076.000000 -1111.956871 672.492327
2076.000000 -1113.956789 672.474182
2076.000000 -1115.956707 672.456038
2076.000000 -1117.956624 672.437894
2076.000000 -1119.956542 672.419749
2076.000000 -1121.956460 672.401605
2076.000000 -1123.956377 672.383460
2076.000000 -1125.956295 672.365316
2076.000000 -1127.956213 672.347171
2076.000000 -1129.956131 672.329027
2076.000000 -1131.956048 672.310883
2076.000000 -1133.955966 672.292738
2076.000000 -1135.955884 672.274594
2076.000000 -1137.955801 672.256449
2076.000000 -1139.955719 672.238305
2076.000000 -1141.955637 672.220161
2076.000000 -1143.955554 672.202016
2076.000000 -1145.955472 672.183872
2076.000000 -1147.955390 672.165727
2076.000000 -1149.955307 672.147583
2076.000000 -1151.955225 672.129438
2076.000000 -1153.955143 672.111294
2076.000000 -1155.955061 672.093150
2076.000000 -1157.954978 672.075005
2076.000000 -1159.954896 672.056861
2076.000000 -1161.954814 672.038716
2076.000000 -1163.954731 672.020572
2076.000000 -1165.954649 672.002428
2076.000000 -1167.954567 671.984283
2076.000000 -1169.954484 671.966139
2076.000000 -1171.954402 671.947994
2076.000000 -1173.954320 671.929850
2076.000000 -1175.954238 671.911706
2076.000000 -1177.954155 671.893561
2076.000000 -1179.954073 671.875417
2076.000000 -1181.953991 671.857272
2076.000000 -1183.953908 671.839128
2076.000000 -1185.953826 671.820983
2076.000000 -1187.953744 671.802839
2076.000000 -1189.953661 671.784695
2076.000000 -1191.953579 671.766550
2076.000000 -1193.953497 671.748406
2076.000000 -1195.953414 671.730261
2076.000000 -1197.953332 671.712117
2076.000000 -1199.953250 671.693973
2076.000000 -1201.953168 671.675828
2076.000000 -1203.953085 671.657684
2076.000000 -1205.953003 671.639539
2076.000000 -1207.952921 671.621395
2076.000000 -1209.952838 671.603250
2076.000000 -1211.952756 671.585106
2076.000000 -1213.952674 671.566962
2076.000000 -1215.952591 671.548817
2076.000000 -1217.952509 671.530673
2076.000000 -1219.952427 671.512528
2076.000000 -1221.952344 671.494384
2076.000000 -1223.952262 671.476240
2076.000000 -1225.952180 671.458095
2076.000000 -1227.952098 671.439951
2076.000000 -1229.952015 671.421806
2076.000000 -1231.951933 671.403662
2076.000000 -1233.951851 671.385517
2076.000000 -1235.951768 671.367373
2076.000000 -1237.951686 671.349229
2076.000000 -1239.951604 671.331084
2076.000000 -1241.951521 671.312940
2076.000000 -1243.951439 671.294795
2076.000000 -1245.951357 671.276651
2076.000000 -1247.951274 671.258507
2076.000000 -1249.951192 671.240362
2076.000000 -1251.951110 671.222218
2076.000000 -1253.951028 671.204073
2076.000000 -1255.950945 671.185929
2076.000000 -1257.950863 671.167785
2076.000000 -1259.950781 671.149640
2076.000000 -1261.950698 671.131496
2076.000000 -1263.950616 671.113351
2076.000000 -1265.950534 671.095207
2076.000000 -1267.950451 671.077062
2076.000000 -1269.950369 671.058918
2076.000000 -1271.950287 671.040774
2076.000000 -1273.950204 671.022629
2076.000000 -1275.950122 671.004485
2076.000000 -1277.950040 670.986340
2076.000000 -1279.949958 670.968196
2076.000000 -1281.949875 670.950052
2076.000000 -1283.949793 670.931907
2076.000000 -1285.949711 670.913763
2076.000000 -1287.949628 670.895618
2076.000000 -1289.949546 670.877474
2076.000000 -1291.949464 670.859329
2076.000000 -1293.949381 670.841185
2076.000000 -1295.949299 670.823041
2076.000000 -1297.949217 670.804896
2076.000000 -1299.949134 670.786752
2076.000000 -1301.949052 670.768607
2076.000000 -1303.948970 670.750463
2076.000000 -1305.948888 670.732319
2076.000000 -1307.948805 670.714174
2076.000000 -1309.948723 670.696030
2076.000000 -1311.948641 670.677885
2076.000000 -1313.948558 670.659741
2076.000000 -1315.948476 670.641596
2076.000000 -1317.948394 670.623452
2076.000000 -1319.948311 670.605308
2076.000000 -1321.948229 670.587163
2076.000000 -1323.948147 670.569019
2076.000000 -1325.948065 670.550874
2076.000000 -1327.947982 670.532730
2076.000000 -1329.947900 670.514586
2076.000000 -1331.947818 670.496441
2076.000000 -1333.947735 670.478297
2076.000000 -1335.947653 670.460152
2076.000000 -1337.947571 670.442008
2076.000000 -1339.947488 670.423864
2076.000000 -1341.947406 670.405719
2076.000000 -1343.947324 670.387575
2076.000000 -1345.947241 670.369430
2076.000000 -1347.947159 670.351286
2076.000000 -1349.947077 670.333141
2076.000000 -1351.946995 670.314997
2076.000000 -1353.946912 670.296853
2076.000000 -1355.946830 670.278708
2076.000000 -1357.946748 670.260564
2076.000000 -1359.946665 670.242419
2076.000000 -1361.946583 670.224275
2076.000000 -1363.946501 670.206131
2076.000000 -1365.946418 670.187986
2076.000000 -1367.946336 670.169842
2076.000000 -1369.946254 670.151697
2076.000000 -1371.946171 670.133553
2076.000000 -1373.946089 670.115408
2076.000000 -1375.946007 670.097264
2076.000000 -1377.945925 670.079120
2076.000000 -1379.945842 670.060975
2076.000000 -1381.945760 670.042831
2076.000000 -1383.945678 670.024686
2076.000000 -1385.945595 670.006542
2076.000000 -1387.945513 669.988398
2076.000000 -1389.945431 669.970253
2076.000000 -1391.945348 669.952109
2076.000000 -1393.945266 669.933964
2076.000000 -1395.945184 669.915820
2076.000000 -1397.945101 669.897675
2076.000000 -1399.945019 669.879531
2076.000000 -1401.944937 669.861387
2076.000000 -1403.944855 669.843242
2076.000000 -1405.944772 669.825098
2076.000000 -1407.944690 669.806953
2076.000000 -1409.944608 669.788809
2076.000000 -1411.944525 669.770665
2076.000000 -1413.944443 669.752520
2076.000000 -1415.944361 669.734376
2076.000000 -1417.944278 669.716231
2076.000000 -1419.944196 669.698087
2076.000000 -1421.944114 669.679943
2076.000000 -1423.944031 669.661798
2076.000000 -1425.943949 669.643654
2076.000000 -1427.943867 669.625509
2076.000000 -1429.943785 669.607365
2076.000000 -1431.943702 669.589220
2076.000000 -1433.943620 669.571076
2076.000000 -1435.943538 669.552932
2076.000000 -1437.943455 669.534787
2076.000000 -1439.943373 669.516643
2076.000000 -1441.943291 669.498498
2076.000000 -1443.943208 669.480354
2076.000000 -1445.943126 669.462210
2076.000000 -1447.943044 669.444065
2076.000000 -1449.942961 669.425921
2076.000000 -1451.942879 669.407776
2076.000000 -1453.942797 669.389632
2076.000000 -1455.942715 669.371487
2076.000000 -1457.942632 669.353343
2076.000000 -1459.942550 669.335199
2076.000000 -1461.942468 669.317054
2076.000000 -1463.942385 669.298910
2076.000000 -1465.942303 669.280765
2076.000000 -1467.942221 669.262621
2076.000000 -1469.942138 669.244477
2076.000000 -1471.942056 669.226332
2076.000000 -1473.941974 669.208188
2076.000000 -1475.941892 669.190043
2076.000000 -1477.941809 669.171899
2076.000000 -1479.941727 669.153754
2076.000000 -1481.941645 669.135610
2076.000000 -1483.941562 669.117466
2076.000000 -1485.941480 669.099321
2076.000000 -1487.941398 669.081177
2076.000000 -1489.941315 669.063032
2076.000000 -1491.941233 669.044888
2076.000000 -1493.941151 669.026744
2076.000000 -1495.941068 669.008599
2076.000000 -1497.940986 668.990455
2076.000000 -1499.940904 668.972310
2076.000000 -1501.940822 668.954166
2076.000000 -1503.940739 668.936022
2076.000000 -1505.940657 668.917877
2076.000000 -1507.940575 668.899733
2076.000000 -1509.940492 668.881588
2076.000000 -1511.940410 668.863444
2076.000000 -1513.940328 668.845299
2076.000000 -1515.940245 668.827155
2076.000000 -1517.940163 668.809011
2076.000000 -1519.940081 668.790866
2076.000000 -1521.939998 668.772722
2076.000000 -1523.939916 668.754577
2076.000000 -1525.939834 668.736433
2076.000000 -1527.939752 668.718289
2076.000000 -1529.939669 668.700144
2076.000000 -1531.939587 668.682000
2076.000000 -1533.939505 668.663855
2076.000000 -1535.939422 668.645711
2076.000000 -1537.939340 668.627566
2076.000000 -1539.939258 668.609422
2076.000000 -1541.939175 668.591278
2076.000000 -1543.939093 668.573133
2076.000000 -1545.939011 668.554989
2076.000000 -1547.938928 668.536844
2076.000000 -1549.938846 668.518700
2076.000000 -1551.938764 668.500556
2076.000000 -1553.938682 668.482411
2076.000000 -1555.938599 668.464267
2076.000000 -1557.938517 668.446122
2076.000000 -1559.938435 668.427978
2076.000000 -1561.938352 668.409833
2076.000000 -1563.938270 668.391689
2076.000000 -1565.938188 668.373545
2076.000000 -1567.938105 668.355400
2076.000000 -1569.938023 668.337256
2076.000000 -1571.937941 668.319111
2076.000000 -1573.937858 668.300967
2076.000000 -1575.937776 668.282823
2076.000000 -1577.937694 668.264678
2076.000000 -1579.937612 668.246534
2076.000000 -1581.937529 668.228389
2076.000000 -1583.937447 668.210245
2076.000000 -1585.937365 668.192101
2076.000000 -1587.937282 668.173956
2076.000000 -1589.937200 668.155812
2076.000000 -1591.937118 668.137667
2076.000000 -1593.937035 668.119523
2076.000000 -1595.936953 668.101378
2076.000000 -1597.936871 668.083234
2076.000000 -1599.936789 668.065090
2076.000000 -1601.936706 668.046945
2076.000000 -1603.936624 668.028801
2076.000000 -1605.936542 668.010656
2076.000000 -1607.936459 667.992512
2076.000000 -1609.936377 667.974368
2076.000000 -1611.936295 667.956223
2076.000000 -1613.936212 667.938079
2076.000000 -1615.936130 667.919934
2076.000000 -1617.936048 667.901790
2076.000000 -1619.935965 667.883645
2076.000000 -1621.935883 667.865501
2076.000000 -1623.935801 667.847357
2076.000000 -1625.935719 667.829212
2076.000000 -1627.935636 667.811068
2076.000000 -1629.935554 667.792923
2076.000000 -1631.935472 667.774779
2076.000000 -1633.935389 667.756635
2076.000000 -1635.935307 667.738490
2076.000000 -1637.935225 667.720346
2076.000000 -1639.935142 667.702201
2076.000000 -1641.935060 667.684057
2076.000000 -1643.934978 667.665913
2076.000000 -1645.934895 667.647768
2076.000000 -1647.934813 667.629624
2076.000000 -1649.934731 667.611479
2076.000000 -1651.934649 667.593335
2076.000000 -1653.934566 667.575190
2076.000000 -1655.934484 667.557046
2076.000000 -1657.934402 667.538902
2076.000000 -1659.934319 667.520757
2076.000000 -1661.934237 667.502613
2076.000000 -1663.934155 667.484468
2076.000000 -1665.934072 667.466324
2076.000000 -1667.933990 667.448180
2076.000000 -1669.933908 667.430035
2076.000000 -1671.933825 667.411891
2076.000000 -1673.933743 667.393746
2076.000000 -1675.933661 667.375602
2076.000000 -1677.933579 667.357457
2076.000000 -1679.933496 667.339313
2076.000000 -1681.933414 667.321169
2076.000000 -1683.933332 667.303024
2076.000000 -1685.933249 667.284880
2076.000000 -1687.933167 667.266735
2076.000000 -1689.933085 667.248591
2076.000000 -1691.933002 667.230447
2076.000000 -1693.932920 667.212302
2076.000000 -1695.932838 667.194158
2076.000000 -1697.932755 667.176013
2076.000000 -1699.932673 667.157869
2076.000000 -1701.932591 667.139724
2076.000000 -1703.932509 667.121580
2076.000000 -1705.932426 667.103436
2076.000000 -1707.932344 667.085291
2076.000000 -1709.932262 667.067147
2076.000000 -1711.932179 667.049002
2076.000000 -1713.932097 667.030858
2076.000000 -1715.932015 667.012714
2076.000000 -1717.931932 666.994569
2076.000000 -1719.931850 666.976425
2076.000000 -1721.931768 666.958280
2076.000000 -1723.931685 666.940136
2076.000000 -1725.931603 666.921992
2076.000000 -1727.931521 666.903847
2076.000000 -1729.931439 666.885703
2076.000000 -1731.931356 666.867558
2076.000000 -1733.931274 666.849414
2076.000000 -1735.931192 666.831269
2076.000000 -1737.931109 666.813125
2076.000000 -1739.931027 666.794981
2076.000000 -1741.930945 666.776836
2076.000000 -1743.930862 666.758692
2076.000000 -1745.930780 666.740547
2076.000000 -1747.930698 666.722403
2076.000000 -1749.930616 666.704259
2076.000000 -1751.930533 666.686114
2076.000000 -1753.930451 666.667970
2076.000000 -1755.930369 666.649825
2076.000000 -1757.930286 666.631681
2076.000000 -1759.930204 666.613536
2076.000000 -1761.930122 666.595392
2076.000000 -1763.930039 666.577248
2076.000000 -1765.929957 666.559103
2076.000000 -1767.929875 666.540959
2076.000000 -1769.929792 666.522814
2076.000000 -1771.929710 666.504670
2076.000000 -1773.929628 666.486526
2076.000000 -1775.929546 666.468381
2076.000000 -1777.929463 666.450237
2076.000000 -1779.929381 666.432092
2076.000000 -1781.929299 666.413948
2076.000000 -1783.929216 666.395803
2076.000000 -1785.929134 666.377659
2076.000000 -1787.929052 666.359515
2076.000000 -1789.928969 666.341370
2076.000000 -1791.928887 666.323226
2076.000000 -1793.928805 666.305081
2076.000000 -1795.928722 666.286937
2076.000000 -1797.928640 666.268793
2076.000000 -1799.928558 666.250648
2076.000000 -1801.928476 666.232504
2076.000000 -1803.928393 666.214359
2076.000000 -1805.928311 666.196215
2076.000000 -1807.928229 666.178071
2076.000000 -1809.928146 666.159926
2076.000000 -1811.928064 666.141782
2076.000000 -1813.927982 666.123637
2076.000000 -1815.927899 666.105493
2076.000000 -1817.927817 666.087348
2076.000000 -1819.927735 666.069204
2076.000000 -1821.927652 666.051060
2076.000000 -1823.927570 666.032915
2076.000000 -1825.927488 666.014771
2076.000000 -1827.927406 665.996626
2076.000000 -1829.927323 665.978482
2076.000000 -1831.927241 665.960338
2076.000000 -1833.927159 665.942193
2076.000000 -1835.927076 665.924049
2076.000000 -1837.926994 665.905904
2076.000000 -1839.926912 665.887760
2076.000000 -1841.926829 665.869615
2076.000000 -1843.926747 665.851471
2076.000000 -1845.926665 665.833327
2076.000000 -1847.926582 665.815182
2076.000000 -1849.926500 665.797038
2076.000000 -1851.926418 665.778893
2076.000000 -1853.926336 665.760749
2076.000000 -1855.926253 665.742605
2076.000000 -1857.926171 665.724460
2076.000000 -1859.926089 665.706316
2076.000000 -1861.926006 665.688171
2076.000000 -1863.925924 665.670027
2076.000000 -1865.925842 665.651882
2076.000000 -1867.925759 665.633738
2076.000000 -1869.925677 665.615594
2076.000000 -1871.925595 665.597449
2076.000000 -1873.925512 665.579305
2076.000000 -1875.925430 665.561160
2076.000000 -1877.925348 665.543016
2076.000000 -1879.925266 665.524872
2076.000000 -1881.925183 665.506727
2076.000000 -1883.925101 665.488583
2076.000000 -1885.925019 665.470438
2076.000000 -1887.924936 665.452294
2076.000000 -1889.924854 665.434150
2076.000000 -1891.924772 665.416005
2076.000000 -1893.924689 665.397861
2076.000000 -1895.924607 665.379716
2076.000000 -1897.924525 665.361572
2076.000000 -1899.924443 665.343427
2076.000000 -1901.924360 665.325283
2076.000000 -1903.924278 665.307139
2076.000000 -1905.924196 665.288994
2076.000000 -1907.924113 665.270850
2076.000000 -1909.924031 665.252705
2076.000000 -1911.923949 665.234561
2076.000000 -1913.923866 665.216417
2076.000000 -1915.923784 665.198272
2076.000000 -1917.923702 665.180128
2076.000000 -1919.923619 665.161983
2076.000000 -1921.923537 665.143839
2076.000000 -1923.923455 665.125694
2076.000000 -1925.923373 665.107550
2076.000000 -1927.923290 665.089406
2076.000000 -1929.923208 665.071261
2076.000000 -1931.923126 665.053117
2076.000000 -1933.923043 665.034972
2076.000000 -1935.922961 665.016828
2076.000000 -1937.922879 664.998684
2076.000000 -1939.922796 664.980539
2076.000000 -1941.922714 664.962395
2076.000000 -1943.922632 664.944250
2076.000000 -1945.922549 664.926106
2076.000000 -1947.922467 664.907961
2076.000000 -1949.922385 664.889817
2076.000000 -1951.922303 664.871673
2076.000000 -1953.922220 664.853528
2076.000000 -1955.922138 664.835384
2076.000000 -1957.922056 664.817239
2076.000000 -1959.921973 664.799095
2076.000000 -1961.921891 664.780951
2076.000000 -1963.921809 664.762806
2076.000000 -1965.921726 664.744662
2076.000000 -1967.921644 664.726517
2076.000000 -1969.921562 664.708373
2076.000000 -1971.921479 664.690229
2076.000000 -1973.921397 664.672084
2076.000000 -1975.921315 664.653940
2076.000000 -1977.921233 664.635795
2076.000000 -1979.921150 664.617651
2076.000000 -1981.921068 664.599506
2076.000000 -1983.920986 664.581362
2076.000000 -1985.920903 664.563218
2076.000000 -1987.920821 664.545073
2076.000000 -1989.920739 664.526929
2076.000000 -1991.920656 664.508784
2076.000000 -1993.920574 664.490640
2076.000000 -1995.920492 664.472496
2076.000000 -1997.920409 664.454351
2076.000000 -1999.920327 664.436207
2076.000000 -2001.920245 664.418062
2076.000000 -2003.920163 664.399918
2076.000000 -2005.920080 664.381773
2076.000000 -2007.919998 664.363629
2076.000000 -2009.919916 664.345485
2076.000000 -2011.919833 664.327340
2076.000000 -2013.919751 664.309196
2076.000000 -2015.919669 664.291051
2076.000000 -2017.919586 664.272907
2076.000000 -2019.919504 664.254763
2076.000000 -2021.919422 664.236618
2076.000000 -2023.919339 664.218474
2076.000000 -2025.919257 664.200329
2076.000000 -2027.919175 664.182185
2076.000000 -2029.919093 664.164040
2076.000000 -2031.919010 664.145896
2076.000000 -2033.918928 664.127752
2076.000000 -2035.918846 664.109607
2076.000000 -2037.918763 664.091463
2076.000000 -2039.918681 664.073318
2076.000000 -2041.918599 664.055174
2076.000000 -2043.918516 664.037030
2076.000000 -2045.918434 664.018885
2076.000000 -2048.000000 664.000000
2075.212161 -2049.838290 664.000000
2074.424323 -2051.676580 664.000000
2073.636484 -2053.514870 664.000000
2072.848646 -2055.353160 664.000000
2072.060807 -2057.191450 664.000000
2071.272968 -2059.029740 664.000000
2070.485130 -2060.868030 664.000000
2069.697291 -2062.706320 664.000000
2068.909453 -2064.544611 664.000000
2068.121614 -2066.382901 664.000000
2067.333775 -2068.221191 664.000000
2066.545937 -2070.059481 664.000000
2065.758098 -2071.897771 664.000000
2064.970260 -2073.736061 664.000000
2064.000000 -2076.000000 664.000000
2062.000000 -2076.000000 664.000000
2060.000000 -2076.000000 664.000000
2058.000000 -2076.000000 664.000000
2056.000000 -2076.000000 664.000000
2054.000000 -2076.000000 664.000000
2052.000000 -2076.000000 664.000000
2050.000000 -2076.000000 664.000000
2048.000000 -2076.000000 664.000000
2046.000000 -2076.000000 664.000000
2044.000000 -2076.000000 664.000000
2042.000000 -2076.000000 664.000000
2040.000000 -2076.000000 664.000000
2038.000000 -2076.000000 664.000000
2036.000000 -2076.000000 664.000000
2034.000000 -2076.000000 664.000000
2032.000000 -2076.000000 664.000000
2030.000000 -2076.000000 664.000000
2028.000000 -2076.000000 664.000000
2026.000000 -2076.000000 664.000000
2024.000000 -2076.000000 664.000000
2022.000000 -2076.000000 664.000000
2020.000000 -2076.000000 664.000000
2018.000000 -2076.000000 664.000000
2016.000000 -2076.000000 664.000000
2014.000000 -2076.000000 664.000000
2012.000000 -2076.000000 664.000000
2010.000000 -2076.000000 664.000000
2008.000000 -2076.000000 664.000000
2006.000000 -2076.000000 664.000000
2004.000000 -2076.000000 664.000000
2002.000000 -2076.000000 664.000000
2000.000000 -2076.000000 664.000000
1998.000000 -2076.000000 664.000000
1996.000000 -2076.000000 664.000000
1994.000000 -2076.000000 664.000000
1992.000000 -2076.000000 664.000000
1990.000000 -2076.000000 664.000000
1988.000000 -2076.000000 664.000000
1986.000000 -2076.000000 664.000000
1984.000000 -2076.000000 664.000000
1982.000000 -2076.000000 664.000000
1980.000000 -2076.000000 664.000000
1978.000000 -2076.000000 664.000000
1976.000000 -2076.000000 664.000000
1974.000000 -2076.000000 664.000000
1972.000000 -2076.000000 664.000000
1970.000000 -2076.000000 664.000000
1968.000000 -2076.000000 664.000000
1966.000000 -2076.000000 664.000000
1964.000000 -2076.000000 664.000000
1962.000000 -2076.000000 664.000000
1960.000000 -2076.000000 664.000000
1958.000000 -2076.000000 664.000000
1956.000000 -2076.000000 664.000000
1954.000000 -2076.000000 664.000000
1952.000000 -2076.000000 664.000000
1950.000000 -2076.000000 664.000000
1948.000000 -2076.000000 664.000000
1946.000000 -2076.000000 664.000000
1944.000000 -2076.000000 664.000000
1942.000000 -2076.000000 664.000000
1940.000000 -2076.000000 664.000000
1938.000000 -2076.000000 664.000000
1936.000000 -2076.000000 664.000000
1934.000000 -2076.000000 664.000000
1932.000000 -2076.000000 664.000000
1930.000000 -2076.000000 664.000000
1928.000000 -2076.000000 664.000000
1926.000000 -2076.000000 664.000000
1924.000000 -2076.000000 664.000000
1922.000000 -2076.000000 664.000000
1920.000000 -2076.000000 664.000000
1918.000000 -2076.000000 664.000000
1916.000000 -2076.000000 664.000000
1914.000000 -2076.000000 664.000000
1912.000000 -2076.000000 664.000000
1910.000000 -2076.000000 664.000000
1908.000000 -2076.000000 664.000000
1906.000000 -2076.000000 664.000000
1904.000000 -2076.000000 664.000000
1902.000000 -2076.000000 664.000000
1900.000000 -2076.000000 664.000000
1898.000000 -2076.000000 664.000000
1896.000000 -2076.000000 664.000000
1894.000000 -2076.000000 664.000000
1892.000000 -2076.000000 664.000000
1890.000000 -2076.000000 664.000000
1888.000000 -2076.000000 664.000000
1886.000000 -2076.000000 664.000000
1884.000000 -2076.000000 664.000000
1882.000000 -2076.000000 664.000000
1880.000000 -2076.000000 664.000000
1878.000000 -2076.000000 664.000000
1876.000000 -2076.000000 664.000000
1874.000000 -2076.000000 664.000000
1872.000000 -2076.000000 664.000000
1870.000000 -2076.000000 664.000000
1868.000000 -2076.000000 664.000000
1866.000000 -2076.000000 664.000000
1864.000000 -2076.000000 664.000000
1862.000000 -2076.000000 664.000000
1860.000000 -2076.000000 664.000000
1858.000000 -2076.000000 664.000000
1856.000000 -2076.000000 664.000000
1854.000000 -2076.000000 664.000000
1852.000000 -2076.000000 664.000000
1850.000000 -2076.000000 664.000000
1848.000000 -2076.000000 664.000000
1846.000000 -2076.000000 664.000000
1844.000000 -2076.000000 664.000000
1842.000000 -2076.000000 664.000000
1840.000000 -2076.000000 664.000000
1838.000000 -2076.000000 664.000000
1836.000000 -2076.000000 664.000000
1834.000000 -2076.000000 664.000000
1832.000000 -2076.000000 664.000000
1830.000000 -2076.000000 664.000000
1828.000000 -2076.000000 664.000000
1826.000000 -2076.000000 664.000000
1824.000000 -2076.000000 664.000000
1822.000000 -2076.000000 664.000000
1820.000000 -2076.000000 664.000000
1818.000000 -2076.000000 664.000000
1816.000000 -2076.000000 664.000000
1814.000000 -2076.000000 664.000000
1812.000000 -2076.000000 664.000000
1810.000000 -2076.000000 664.000000
1808.000000 -2076.000000 664.000000
1806.000000 -2076.000000 664.000000
1804.000000 -2076.000000 664.000000
1802.000000 -2076.000000 664.000000
1800.000000 -2076.000000 664.000000
1798.000000 -2076.000000 664.000000
1796.000000 -2076.000000 664.000000
1794.000000 -2076.000000 664.000000
1792.000000 -2076.000000 664.000000
1790.000000 -2076.000000 664.000000
1788.000000 -2076.000000 664.000000
1786.000000 -2076.000000 664.000000
1784.000000 -2076.000000 664.000000
1782.000000 -2076.000000 664.000000
1780.000000 -2076.000000 664.000000
1778.000000 -2076.000000 664.000000
1776.000000 -2076.000000 664.000000
1774.000000 -2076.000000 664.000000
1772.000000 -2076.000000 664.000000
1770.000000 -2076.000000 664.000000
1768.000000 -2076.000000 664.000000
1766.000000 -2076.000000 664.000000
1764.000000 -2076.000000 664.000000
1762.000000 -2076.000000 664.000000
1760.000000 -2076.000000 664.000000
1758.000000 -2076.000000 664.000000
1756.000000 -2076.000000 664.000000
1754.000000 -2076.000000 664.000000
1752.000000 -2076.000000 664.000000
1750.000000 -2076.000000 664.000000
1748.000000 -2076.000000 664.000000
1746.000000 -2076.000000 664.000000
1744.000000 -2076.000000 664.000000
1742.000000 -2076.000000 664.000000
1740.000000 -2076.000000 664.000000
1738.000000 -2076.000000 664.000000
1736.000000 -2076.000000 664.000000
1734.000000 -2076.000000 664.000000
1732.000000 -2076.000000 664.000000
1730.000000 -2076.000000 664.000000
1728.000000 -2076.000000 664.000000
1726.000000 -2076.000000 664.000000
1724.000000 -2076.000000 664.000000
1722.000000 -2076.000000 664.000000
1720.000000 -2076.000000 664.000000
1718.000000 -2076.000000 664.000000
1716.000000 -2076.000000 664.000000
1714.000000 -2076.000000 664.000000
1712.000000 -2076.000000 664.000000
1710.000000 -2076.000000 664.000000
1708.000000 -2076.000000 664.000000
1706.000000 -2076.000000 664.000000
1704.000000 -2076.000000 664.000000
1702.000000 -2076.000000 664.000000
1700.000000 -2076.000000 664.000000
1698.000000 -2076.000000 664.000000
1696.000000 -2076.000000 664.000000
1694.000000 -2076.000000 664.000000
1692.000000 -2076.000000 664.000000
1690.000000 -2076.000000 664.000000
1688.000000 -2076.000000 664.000000
1686.000000 -2076.000000 664.000000
1684.000000 -2076.000000 664.000000
1682.000000 -2076.000000 664.000000
1680.000000 -2076.000000 664.000000
1678.000000 -2076.000000 664.000000
1676.000000 -2076.000000 664.000000
1674.000000 -2076.000000 664.000000
1672.000000 -2076.000000 664.000000
1670.000000 -2076.000000 664.000000
1668.000000 -2076.000000 664.000000
1666.000000 -2076.000000 664.000000
1664.000000 -2076.000000 664.000000
1662.000000 -2076.000000 664.000000
1660.000000 -2076.000000 664.000000
1658.000000 -2076.000000 664.000000
1656.000000 -2076.000000 664.000000
1654.000000 -2076.000000 664.000000
1652.000000 -2076.000000 664.000000
1650.000000 -2076.000000 664.000000
1648.000000 -2076.000000 664.000000
1646.000000 -2076.000000 664.000000
1644.000000 -2076.000000 664.000000
1642.000000 -2076.000000 664.000000
1640.000000 -2076.000000 664.000000
1638.000000 -2076.000000 664.000000
1636.000000 -2076.000000 664.000000
1634.000000 -2076.000000 664.000000
1632.000000 -2076.000000 664.000000
1630.000000 -2076.000000 664.000000
1628.000000 -2076.000000 664.000000
1626.000000 -2076.000000 664.000000
1624.000000 -2076.000000 664.000000
1622.000000 -2076.000000 664.000000
1620.000000 -2076.000000 664.000000
1618.000000 -2076.000000 664.000000
1616.000000 -2076.000000 664.000000
1614.000000 -2076.000000 664.000000
1612.000000 -2076.000000 664.000000
1610.000000 -2076.000000 664.000000
1608.000000 -2076.000000 664.000000
1606.000000 -2076.000000 664.000000
1604.000000 -2076.000000 664.000000
1602.000000 -2076.000000 664.000000
1600.000000 -2076.000000 664.000000
1598.000000 -2076.000000 664.000000
1596.000000 -2076.000000 664.000000
1594.000000 -2076.000000 664.000000
1592.000000 -2076.000000 664.000000
1590.000000 -2076.000000 664.000000
1588.000000 -2076.000000 664.000000
1586.000000 -2076.000000 664.000000
1584.000000 -2076.000000 664.000000
1582.000000 -2076.000000 664.000000
1580.000000 -2076.000000 664.000000
1578.000000 -2076.000000 664.000000
1576.000000 -2076.000000 664.000000
1574.000000 -2076.000000 664.000000
1572.000000 -2076.000000 664.000000
1570.000000 -2076.000000 664.000000
1568.000000 -2076.000000 664.000000
1566.000000 -2076.000000 664.000000
1564.000000 -2076.000000 664.000000
1562.000000 -2076.000000 664.000000
1560.000000 -2076.000000 664.000000
1558.000000 -2076.000000 664.000000
1556.000000 -2076.000000 664.000000
1554.000000 -2076.000000 664.000000
1552.000000 -2076.000000 664.000000
1550.000000 -2076.000000 664.000000
1548.000000 -2076.000000 664.000000
1546.000000 -2076.000000 664.000000
1544.000000 -2076.000000 664.000000
1542.000000 -2076.000000 664.000000
1540.000000 -2076.000000 664.000000
1538.000000 -2076.000000 664.000000
1536.000000 -2076.000000 664.000000
1534.000000 -2076.000000 664.000000
1532.000000 -2076.000000 664.000000
1530.000000 -2076.000000 664.000000
1528.000000 -2076.000000 664.000000
1526.000000 -2076.000000 664.000000
1524.000000 -2076.000000 664.000000
1522.000000 -2076.000000 664.000000
1520.000000 -2076.000000 664.000000
1518.000000 -2076.000000 664.000000
1516.000000 -2076.000000 664.000000
1514.000000 -2076.000000 664.000000
1512.000000 -2076.000000 664.000000
1510.000000 -2076.000000 664.000000
1508.000000 -2076.000000 664.000000
1506.000000 -2076.000000 664.000000
1504.000000 -2076.000000 664.000000
1502.000000 -2076.000000 664.000000
1500.000000 -2076.000000 664.000000
1498.000000 -2076.000000 664.000000
1496.000000 -2076.000000 664.000000
1494.000000 -2076.000000 664.000000
1492.000000 -2076.000000 664.000000
1490.000000 -2076.000000 664.000000
1488.000000 -2076.000000 664.000000
1486.000000 -2076.000000 664.000000
1484.000000 -2076.000000 664.000000
1482.000000 -2076.000000 664.000000
1480.000000 -2076.000000 664.000000
1478.000000 -2076.000000 664.000000
1476.000000 -2076.000000 664.000000
1474.000000 -2076.000000 664.000000
1472.000000 -2076.000000 664.000000
1470.000000 -2076.000000 664.000000
1468.000000 -2076.000000 664.000000
1466.000000 -2076.000000 664.000000
1464.000000 -2076.000000 664.000000
1462.000000 -2076.000000 664.000000
1460.000000 -2076.000000 664.000000
1458.000000 -2076.000000 664.000000
1456.000000 -2076.000000 664.000000
1454.000000 -2076.000000 664.000000
1452.000000 -2076.000000 664.000000
1450.000000 -2076.000000 664.000000
1448.000000 -2076.000000 664.000000
1446.000000 -2076.000000 664.000000
1444.000000 -2076.000000 664.000000
1442.000000 -2076.000000 664.000000
1440.000000 -2076.000000 664.000000
1438.000000 -2076.000000 664.000000
1436.000000 -2076.000000 664.000000
1434.000000 -2076.000000 664.000000
1432.000000 -2076.000000 664.000000
1430.000000 -2076.000000 664.000000
1428.000000 -2076.000000 664.000000
1426.000000 -2076.000000 664.000000
1424.000000 -2076.000000 664.000000
1422.000000 -2076.000000 664.000000
1420.000000 -2076.000000 664.000000
1418.000000 -2076.000000 664.000000
1416.000000 -2076.000000 664.000000
1414.000000 -2076.000000 664.000000
1412.000000 -2076.000000 664.000000
1410.000000 -2076.000000 664.000000
1408.000000 -2076.000000 664.000000
1406.000000 -2076.000000 664.000000
1404.000000 -2076.000000 664.000000
1402.000000 -2076.000000 664.000000
1400.000000 -2076.000000 664.000000
1398.000000 -2076.000000 664.000000
1396.000000 -2076.000000 664.000000
1394.000000 -2076.000000 664.000000
1392.000000 -2076.000000 664.000000
1390.000000 -2076.000000 664.000000
1388.000000 -2076.000000 664.000000
1386.000000 -2076.000000 664.000000
1384.000000 -2076.000000 664.000000
1382.000000 -2076.000000 664.000000
1380.000000 -2076.000000 664.000000
1378.000000 -2076.000000 664.000000
1376.000000 -2076.000000 664.000000
1374.000000 -2076.000000 664.000000
1372.000000 -2076.000000 664.000000
1370.000000 -2076.000000 664.000000
1368.000000 -2076.000000 664.000000
1366.000000 -2076.000000 664.000000
1364.000000 -2076.000000 664.000000
1362.000000 -2076.000000 664.000000
1360.000000 -2076.000000 664.000000
1358.000000 -2076.000000 664.000000
1356.000000 -2076.000000 664.000000
1354.000000 -2076.000000 664.000000
1352.000000 -2076.000000 664.000000
1350.000000 -2076.000000 664.000000
1348.000000 -2076.000000 664.000000
1346.000000 -2076.000000 664.000000
1344.000000 -2076.000000 664.000000
1342.000000 -2076.000000 664.000000
1340.000000 -2076.000000 664.000000
1338.000000 -2076.000000 664.000000
1336.000000 -2076.000000 664.000000
1334.000000 -2076.000000 664.000000
1332.000000 -2076.000000 664.000000
1330.000000 -2076.000000 664.000000
1328.000000 -2076.000000 664.000000
1326.000000 -2076.000000 664.000000
1324.000000 -2076.000000 664.000000
1322.000000 -2076.000000 664.000000
1320.000000 -2076.000000 664.000000
1318.000000 -2076.000000 664.000000
1316.000000 -2076.000000 664.000000
1314.000000 -2076.000000 664.000000
1312.000000 -2076.000000 664.000000
1310.000000 -2076.000000 664.000000
1308.000000 -2076.000000 664.000000
1306.000000 -2076.000000 664.000000
1304.000000 -2076.000000 664.000000
1302.000000 -2076.000000 664.000000
1300.000000 -2076.000000 664.000000
1298.000000 -2076.000000 664.000000
1296.000000 -2076.000000 664.000000
1294.000000 -2076.000000 664.000000
1292.000000 -2076.000000 664.000000
1290.000000 -2076.000000 664.000000
1288.000000 -2076.000000 664.000000
1286.000000 -2076.000000 664.000000
1284.000000 -2076.000000 664.000000
1282.000000 -2076.000000 664.000000
1280.000000 -2076.000000 664.000000
1278.000000 -2076.000000 664.000000
1276.000000 -2076.000000 664.000000
1274.000000 -2076.000000 664.000000
1272.000000 -2076.000000 664.000000
1270.000000 -2076.000000 664.000000
1268.000000 -2076.000000 664.000000
1266.000000 -2076.000000 664.000000
1264.000000 -2076.000000 664.000000
1262.000000 -2076.000000 664.000000
1260.000000 -2076.000000 664.000000
1258.000000 -2076.000000 664.000000
1256.000000 -2076.000000 664.000000
1254.000000 -2076.000000 664.000000
1252.000000 -2076.000000 664.000000
1250.000000 -2076.000000 664.000000
1248.000000 -2076.000000 664.000000
1246.000000 -2076.000000 664.000000
1244.000000 -2076.000000 664.000000
1242.000000 -2076.000000 664.000000
1240.000000 -2076.000000 664.000000
1238.000000 -2076.000000 664.000000
1236.000000 -2076.000000 664.000000
1234.000000 -2076.000000 664.000000
1232.000000 -2076.000000 664.000000
1230.000000 -2076.000000 664.000000
1228.000000 -2076.000000 664.000000
1226.000000 -2076.000000 664.000000
1224.000000 -2076.000000 664.000000
1222.000000 -2076.000000 664.000000
1220.000000 -2076.000000 664.000000
1218.000000 -2076.000000 664.000000
1216.000000 -2076.000000 664.000000
1214.000000 -2076.000000 664.000000
1212.000000 -2076.000000 664.000000
1210.000000 -2076.000000 664.000000
1208.000000 -2076.000000 664.000000
1206.000000 -2076.000000 664.000000
1204.000000 -2076.000000 664.000000
1202.000000 -2076.000000 664.000000
1200.000000 -2076.000000 664.000000
1198.000000 -2076.000000 664.000000
1196.000000 -2076.000000 664.000000
1194.000000 -2076.000000 664.000000
1192.000000 -2076.000000 664.000000
1190.000000 -2076.000000 664.000000
1188.000000 -2076.000000 664.000000
1186.000000 -2076.000000 664.000000
1184.000000 -2076.000000 664.000000
1182.000000 -2076.000000 664.000000
1180.000000 -2076.000000 664.000000
1178.000000 -2076.000000 664.000000
1176.000000 -2076.000000 664.000000
1174.000000 -2076.000000 664.000000
1172.000000 -2076.000000 664.000000
1170.000000 -2076.000000 664.000000
1168.000000 -2076.000000 664.000000
1166.000000 -2076.000000 664.000000
1164.000000 -2076.000000 664.000000
1162.000000 -2076.000000 664.000000
1160.000000 -2076.000000 664.000000
1158.000000 -2076.000000 664.000000
1156.000000 -2076.000000 664.000000
1154.000000 -2076.000000 664.000000
1152.000000 -2076.000000 664.000000
1150.000000 -2076.000000 664.000000
1148.000000 -2076.000000 664.000000
1146.000000 -2076.000000 664.000000
1144.000000 -2076.000000 664.000000
1142.000000 -2076.000000 664.000000
1140.000000 -2076.000000 664.000000
1138.000000 -2076.000000 664.000000
1136.000000 -2076.000000 664.000000
1134.000000 -2076.000000 664.000000
1132.000000 -2076.000000 664.000000
1130.000000 -2076.000000 664.000000
1128.000000 -2076.000000 664.000000
1126.000000 -2076.000000 664.000000
1124.000000 -2076.000000 664.000000
1122.000000 -2076.000000 664.000000
1120.000000 -2076.000000 664.000000
1118.000000 -2076.000000 664.000000
1116.000000 -2076.000000 664.000000
1114.000000 -2076.000000 664.000000
1112.000000 -2076.000000 664.000000
1110.000000 -2076.000000 664.000000
1108.000000 -2076.000000 664.000000
1106.000000 -2076.000000 664.000000
1104.000000 -2076.000000 664.000000
1102.000000 -2076.000000 664.000000
1100.000000 -2076.000000 664.000000
1098.000000 -2076.000000 664.000000
1096.000000 -2076.000000 664.000000
1094.000000 -2076.000000 664.000000
1092.000000 -2076.000000 664.000000
1090.000000 -2076.000000 664.000000
1088.000000 -2076.000000 664.000000
1086.000000 -2076.000000 664.000000
1084.000000 -2076.000000 664.000000
1082.000000 -2076.000000 664.000000
1080.000000 -2076.000000 664.000000
1078.000000 -2076.000000 664.000000
1076.000000 -2076.000000 664.000000
1074.000000 -2076.000000 664.000000
1072.000000 -2076.000000 664.000000
1070.000000 -2076.000000 664.000000
1068.000000 -2076.000000 664.000000
1066.000000 -2076.000000 664.000000
1064.000000 -2076.000000 664.000000
1062.000000 -2076.000000 664.000000
1060.000000 -2076.000000 664.000000
1058.000000 -2076.000000 664.000000
1056.000000 -2076.000000 664.000000
1054.000000 -2076.000000 664.000000
1052.000000 -2076.000000 664.000000
1050.000000 -2076.000000 664.000000
1048.000000 -2076.000000 664.000000
1046.000000 -2076.000000 664.000000
1044.000000 -2076.000000 664.000000
1042.000000 -2076.000000 664.000000
1040.000000 -2076.000000 664.000000
1038.000000 -2076.000000 664.000000
1036.000000 -2076.000000 664.000000
1034.000000 -2076.000000 664.000000
1032.000000 -2076.000000 664.000000
1030.000000 -2076.000000 664.000000
1028.000000 -2076.000000 664.000000
