-968.794915 672.635932 -72.770339
-969.883158 673.506526 -71.335837
-970.971400 674.377120 -69.901336
-972.059643 675.247714 -68.466834
-973.147885 676.118308 -67.032333
-974.236128 676.988902 -65.597832
-975.324370 677.859496 -64.163330
-976.412613 678.730090 -62.728829
-977.500855 679.600684 -61.294327
-978.589098 680.471278 -59.859826
-979.677340 681.341872 -58.425324
-980.765583 682.212466 -56.990823
-981.853825 683.083060 -55.556321
-982.942068 683.953654 -54.121820
-984.030310 684.824248 -52.687318
-985.118553 685.694842 -51.252817
-986.206795 686.565436 -49.818316
-987.295038 687.436030 -48.383814
-988.383280 688.306624 -46.949313
-989.471523 689.177218 -45.514811
-990.559765 690.047812 -44.080310
-991.648007 690.918406 -42.645808
-992.736250 691.789000 -41.211307
-993.824492 692.659594 -39.776805
-994.912735 693.530188 -38.342304
-996.000977 694.400782 -36.907803
-997.089220 695.271376 -35.473301
-998.177462 696.141970 -34.038800
-999.265705 697.012564 -32.604298
-1000.353947 697.883158 -31.169797
-1001.442190 698.753752 -29.735295
-1002.530432 699.624346 -28.300794
-1003.618675 700.494940 -26.866292
-1004.706917 701.365534 -25.431791
-1005.795160 702.236128 -23.997289
-1006.883402 703.106722 -22.562788
-1007.971645 703.977316 -21.128287
-1009.059887 704.847910 -19.693785
-1010.148130 705.718504 -18.259284
-1011.236372 706.589098 -16.824782
-1012.324615 707.459692 -15.390281
-1013.412857 708.330286 -13.955779
-1014.501100 709.200880 -12.521278
-1015.589342 710.071474 -11.086776
-1016.677585 710.942068 -9.652275
-1017.765827 711.812662 -8.217773
-1018.854070 712.683256 -6.783272
-1019.942312 713.553850 -5.348771
-1021.030554 714.424444 -3.914269
-1022.118797 715.295038 -2.479768
-1024.000000 716.800000 0.000000
-1025.827133 716.196756 0.545602
-1027.654266 715.593512 1.091204
-1029.481399 714.990268 1.636807
-1031.308532 714.387024 2.182409
-1033.135665 713.783780 2.728011
-1034.962798 713.180537 3.273613
-1036.789931 712.577293 3.819216
-1038.617064 711.974049 4.364818
-1040.444197 711.370805 4.910420
-1042.271330 710.767561 5.456022
-1044.098463 710.164317 6.001624
-1045.925596 709.561073 6.547227
-1047.752729 708.957829 7.092829
-1049.579862 708.354585 7.638431
-1051.406995 707.751341 8.184033
-1053.234128 707.148097 8.729635
-1055.061261 706.544854 9.275238
-1056.888394 705.941610 9.820840
-1058.715527 705.338366 10.366442
-1060.542660 704.735122 10.912044
-1062.369793 704.131878 11.457647
-1064.196926 703.528634 12.003249
-1066.024059 702.925390 12.548851
-1067.851192 702.322146 13.094453
-1069.678325 701.718902 13.640055
-1071.505458 701.115658 14.185658
-1073.332591 700.512414 14.731260
-1075.159724 699.909170 15.276862
-1076.986857 699.305927 15.822464
-1078.813990 698.702683 16.368066
-1080.641123 698.099439 16.913669
-1082.468256 697.496195 17.459271
-1084.295389 696.892951 18.004873
-1086.122522 696.289707 18.550475
-1087.949655 695.686463 19.096078
-1089.776788 695.083219 19.641680
-1091.603921 694.479975 20.187282
-1093.431054 693.876731 20.732884
-1095.258187 693.273487 21.278486
-1097.085320 692.670244 21.824089
-1098.912453 692.067000 22.369691
-1100.739586 691.463756 22.915293
-1102.566719 690.860512 23.460895
-1104.393852 690.257268 24.006497
-1106.220985 689.654024 24.552100
-1108.048118 689.050780 25.097702
-1109.875251 688.447536 25.643304
-1111.702384 687.844292 26.188906
-1113.529517 687.241048 26.734509
-1115.356650 686.637804 27.280111
-1117.183783 686.034561 27.825713
-1119.010916 685.431317 28.371315
-1120.838049 684.828073 28.916917
-1122.665182 684.224829 29.462520
-1124.492315 683.621585 30.008122
-1126.319448 683.018341 30.553724
-1128.146581 682.415097 31.099326
-1129.973714 681.811853 31.644929
-1131.800847 681.208609 32.190531
-1133.627980 680.605365 32.736133
-1135.455113 680.002121 33.281735
-1137.282246 679.398877 33.827337
-1139.109379 678.795634 34.372940
-1140.936512 678.192390 34.918542
-1142.763645 677.589146 35.464144
-1144.590778 676.985902 36.009746
-1146.417911 676.382658 36.555348
-1148.245044 675.779414 37.100951
-1150.072177 675.176170 37.646553
-1151.899310 674.572926 38.192155
-1153.726443 673.969682 38.737757
-1155.553576 673.366438 39.283360
-1157.380709 672.763194 39.828962
-1159.207842 672.159951 40.374564
-1161.034975 671.556707 40.920166
-1162.862108 670.953463 41.465768
-1164.689241 670.350219 42.011371
-1166.516374 669.746975 42.556973
-1168.343507 669.143731 43.102575
-1170.170640 668.540487 43.648177
-1171.997773 667.937243 44.193779
-1173.824906 667.333999 44.739382
-1175.652039 666.730755 45.284984
-1177.479172 666.127511 45.830586
-1179.306305 665.524268 46.376188
-1181.133438 664.921024 46.921791
-1182.960571 664.317780 47.467393
-1184.787704 663.714536 48.012995
-1186.614837 663.111292 48.558597
-1188.441970 662.508048 49.104199
-1190.269103 661.904804 49.649802
-1192.096236 661.301560 50.195404
-1193.923369 660.698316 50.741006
-1195.750502 660.095072 51.286608
-1197.577635 659.491828 51.832210
-1199.404768 658.888584 52.377813
-1201.231901 658.285341 52.923415
-1203.059034 657.682097 53.469017
-1204.886167 657.078853 54.014619
-1206.713300 656.475609 54.560222
-1208.540433 655.872365 55.105824
-1210.367566 655.269121 55.651426
-1212.194699 654.665877 56.197028
-1214.021832 654.062633 56.742630
-1215.848965 653.459389 57.288233
-1217.676098 652.856145 57.833835
-1219.503231 652.252901 58.379437
-1221.330364 651.649658 58.925039
-1223.157497 651.046414 59.470642
-1224.984630 650.443170 60.016244
-1226.811763 649.839926 60.561846
-1228.638896 649.236682 61.107448
-1230.466029 648.633438 61.653050
-1232.293162 648.030194 62.198653
-1234.120295 647.426950 62.744255
-1235.947428 646.823706 63.289857
-1237.774561 646.220462 63.835459
-1239.601694 645.617218 64.381061
-1241.428827 645.013975 64.926664
-1243.255960 644.410731 65.472266
-1245.083093 643.807487 66.017868
-1246.910226 643.204243 66.563470
-1248.737359 642.600999 67.109073
-1250.564492 641.997755 67.654675
-1252.391625 641.394511 68.200277
-1254.218758 640.791267 68.745879
-1256.045891 640.188023 69.291481
-1257.873024 639.584779 69.837084
-1259.700157 638.981535 70.382686
-1261.527290 638.378291 70.928288
-1263.354423 637.775048 71.473890
-1265.181556 637.171804 72.019492
-1267.008689 636.568560 72.565095
-1268.835822 635.965316 73.110697
-1270.662955 635.362072 73.656299
-1272.490088 634.758828 74.201901
-1274.317221 634.155584 74.747504
-1276.144354 633.552340 75.293106
-1277.971487 632.949096 75.838708
-1279.798620 632.345852 76.384310
-1281.625753 631.742608 76.929912
-1283.452886 631.139365 77.475515
-1285.280019 630.536121 78.021117
-1287.107152 629.932877 78.566719
-1288.934285 629.329633 79.112321
-1290.761418 628.726389 79.657923
-1292.588551 628.123145 80.203526
-1294.415684 627.519901 80.749128
-1296.242817 626.916657 81.294730
-1298.069950 626.313413 81.840332
-1299.897083 625.710169 82.385935
-1301.724216 625.106925 82.931537
-1303.551349 624.503682 83.477139
-1305.378482 623.900438 84.022741
-1307.205615 623.297194 84.568343
-1309.032748 622.693950 85.113946
-1310.859881 622.090706 85.659548
-1312.687014 621.487462 86.205150
-1314.514147 620.884218 86.750752
-1316.341280 620.280974 87.296355
-1318.168413 619.677730 87.841957
-1319.995546 619.074486 88.387559
-1321.822679 618.471242 88.933161
-1323.649812 617.867998 89.478763
-1325.476945 617.264755 90.024366
-1327.304078 616.661511 90.569968
-1329.131211 616.058267 91.115570
-1330.958344 615.455023 91.661172
-1332.785477 614.851779 92.206774
-1334.612610 614.248535 92.752377
-1336.439743 613.645291 93.297979
-1338.266876 613.042047 93.843581
-1340.094009 612.438803 94.389183
-1341.921142 611.835559 94.934786
-1343.748275 611.232315 95.480388
-1345.575408 610.629072 96.025990
-1347.402541 610.025828 96.571592
-1349.229674 609.422584 97.117194
-1351.056807 608.819340 97.662797
-1352.883940 608.216096 98.208399
-1354.711073 607.612852 98.754001
-1356.538206 607.009608 99.299603
-1358.365339 606.406364 99.845205
-1360.192472 605.803120 100.390808
-1362.019605 605.199876 100.936410
-1363.846738 604.596632 101.482012
-1365.673871 603.993389 102.027614
-1367.501004 603.390145 102.573217
-1369.328137 602.786901 103.118819
-1371.155270 602.183657 103.664421
-1372.982403 601.580413 104.210023
-1374.809536 600.977169 104.755625
-1376.636669 600.373925 105.301228
-1378.463802 599.770681 105.846830
-1380.290935 599.167437 106.392432
-1382.118068 598.564193 106.938034
-1383.945201 597.960949 107.483636
-1385.772334 597.357705 108.029239
-1387.599467 596.754462 108.574841
-1389.426600 596.151218 109.120443
-1391.253733 595.547974 109.666045
-1393.080866 594.944730 110.211648
-1394.907999 594.341486 110.757250
-1396.735132 593.738242 111.302852
-1398.562265 593.134998 111.848454
-1400.389398 592.531754 112.394056
-1402.216531 591.928510 112.939659
-1404.043664 591.325266 113.485261
-1405.870797 590.722022 114.030863
-1407.697930 590.118779 114.576465
-1409.525063 589.515535 115.122068
-1411.352196 588.912291 115.667670
-1413.179329 588.309047 116.213272
-1415.006462 587.705803 116.758874
-1416.833595 587.102559 117.304476
-1418.660728 586.499315 117.850079
-1420.487861 585.896071 118.395681
-1422.314994 585.292827 118.941283
-1424.142127 584.689583 119.486885
-1425.969260 584.086339 120.032487
-1427.796393 583.483096 120.578090
-1429.623526 582.879852 121.123692
-1431.450659 582.276608 121.669294
-1433.277792 581.673364 122.214896
-1435.104925 581.070120 122.760499
-1436.932058 580.466876 123.306101
-1438.759191 579.863632 123.851703
-1440.586324 579.260388 124.397305
-1442.413457 578.657144 124.942907
-1444.240590 578.053900 125.488510
-1446.067723 577.450656 126.034112
-1447.894856 576.847413 126.579714
-1449.721989 576.244169 127.125316
-1451.549122 575.640925 127.670918
-1453.376255 575.037681 128.216521
-1455.203388 574.434437 128.762123
-1457.030521 573.831193 129.307725
-1458.857654 573.227949 129.853327
-1460.684787 572.624705 130.398930
-1462.511920 572.021461 130.944532
-1464.339053 571.418217 131.490134
-1466.166186 570.814973 132.035736
-1467.993319 570.211729 132.581338
-1469.820452 569.608486 133.126941
-1471.647585 569.005242 133.672543
-1473.474718 568.401998 134.218145
-1475.301851 567.798754 134.763747
-1477.128984 567.195510 135.309350
-1478.956117 566.592266 135.854952
-1480.783250 565.989022 136.400554
-1482.610383 565.385778 136.946156
-1484.437516 564.782534 137.491758
-1486.264649 564.179290 138.037361
-1488.091782 563.576046 138.582963
-1489.918915 562.972803 139.128565
-1491.746048 562.369559 139.674167
-1493.573181 561.766315 140.219769
-1495.400314 561.163071 140.765372
-1497.227447 560.559827 141.310974
-1499.054580 559.956583 141.856576
-1500.881713 559.353339 142.402178
-1502.708846 558.750095 142.947781
-1504.535979 558.146851 143.493383
-1506.363112 557.543607 144.038985
-1508.190245 556.940363 144.584587
-1510.017378 556.337120 145.130189
-1511.844511 555.733876 145.675792
-1513.671644 555.130632 146.221394
-1515.498777 554.527388 146.766996
-1517.325910 553.924144 147.312598
-1519.153043 553.320900 147.858200
-1520.980176 552.717656 148.403803
-1522.807309 552.114412 148.949405
-1524.634442 551.511168 149.495007
-1526.461575 550.907924 150.040609
-1528.288708 550.304680 150.586212
-1530.115841 549.701436 151.131814
-1531.942974 549.098193 151.677416
-1533.770107 548.494949 152.223018
-1535.597240 547.891705 152.768620
-1537.424373 547.288461 153.314223
-1539.251506 546.685217 153.859825
-1541.078639 546.081973 154.405427
-1542.905772 545.478729 154.951029
-1544.732905 544.875485 155.496631
-1546.560038 544.272241 156.042234
-1548.387171 543.668997 156.587836
-1550.214304 543.065753 157.133438
-1552.041437 542.462510 157.679040
-1553.868570 541.859266 158.224643
-1555.695703 541.256022 158.770245
-1557.522836 540.652778 159.315847
-1559.349969 540.049534 159.861449
-1561.177102 539.446290 160.407051
-1563.004235 538.843046 160.952654
-1564.831368 538.239802 161.498256
-1566.658501 537.636558 162.043858
-1568.485634 537.033314 162.589460
-1570.312767 536.430070 163.135063
-1572.139900 535.826827 163.680665
-1573.967033 535.223583 164.226267
-1575.794166 534.620339 164.771869
-1577.621299 534.017095 165.317471
-1579.448432 533.413851 165.863074
-1581.275565 532.810607 166.408676
-1583.102698 532.207363 166.954278
-1584.929831 531.604119 167.499880
-1586.756964 531.000875 168.045482
-1588.584097 530.397631 168.591085
-1590.411230 529.794387 169.136687
-1592.238363 529.191143 169.682289
-1594.065496 528.587900 170.227891
-1595.892629 527.984656 170.773494
-1597.719762 527.381412 171.319096
-1599.546895 526.778168 171.864698
-1601.374028 526.174924 172.410300
-1603.201161 525.571680 172.955902
-1605.028294 524.968436 173.501505
-1606.855427 524.365192 174.047107
-1608.682560 523.761948 174.592709
-1610.509693 523.158704 175.138311
-1612.336826 522.555460 175.683913
-1614.163959 521.952217 176.229516
-1615.991092 521.348973 176.775118
-1617.818225 520.745729 177.320720
-1619.645358 520.142485 177.866322
-1621.472492 519.539241 178.411925
-1623.299625 518.935997 178.957527
-1625.126758 518.332753 179.503129
-1626.953891 517.729509 180.048731
-1628.781024 517.126265 180.594333
-1630.608157 516.523021 181.139936
-1632.435290 515.919777 181.685538
-1634.262423 515.316534 182.231140
-1636.089556 514.713290 182.776742
-1637.916689 514.110046 183.322344
-1639.743822 513.506802 183.867947
-1641.570955 512.903558 184.413549
-1643.398088 512.300314 184.959151
-1645.225221 511.697070 185.504753
-1647.052354 511.093826 186.050356
-1648.879487 510.490582 186.595958
-1650.706620 509.887338 187.141560
-1652.533753 509.284094 187.687162
-1654.360886 508.680850 188.232764
-1656.188019 508.077607 188.778367
-1658.015152 507.474363 189.323969
-1659.842285 506.871119 189.869571
-1661.669418 506.267875 190.415173
-1663.496551 505.664631 190.960776
-1665.323684 505.061387 191.506378
-1667.150817 504.458143 192.051980
-1668.977950 503.854899 192.597582
-1670.805083 503.251655 193.143184
-1672.632216 502.648411 193.688787
-1674.459349 502.045167 194.234389
-1676.286482 501.441924 194.779991
-1678.113615 500.838680 195.325593
-1679.940748 500.235436 195.871195
-1681.767881 499.632192 196.416798
-1683.595014 499.028948 196.962400
-1685.422147 498.425704 197.508002
-1687.249280 497.822460 198.053604
-1689.076413 497.219216 198.599207
-1690.903546 496.615972 199.144809
-1692.730679 496.012728 199.690411
-1694.557812 495.409484 200.236013
-1696.384945 494.806241 200.781615
-1698.212078 494.202997 201.327218
-1700.039211 493.599753 201.872820
-1701.866344 492.996509 202.418422
-1703.693477 492.393265 202.964024
-1705.520610 491.790021 203.509626
-1707.347743 491.186777 204.055229
-1709.174876 490.583533 204.600831
-1711.002009 489.980289 205.146433
-1712.829142 489.377045 205.692035
-1714.656275 488.773801 206.237638
-1716.483408 488.170557 206.783240
-1718.310541 487.567314 207.328842
-1720.137674 486.964070 207.874444
-1721.964807 486.360826 208.420046
-1723.791940 485.757582 208.965649
-1725.619073 485.154338 209.511251
-1727.446206 484.551094 210.056853
-1729.273339 483.947850 210.602455
-1731.100472 483.344606 211.148057
-1732.927605 482.741362 211.693660
-1734.754738 482.138118 212.239262
-1736.581871 481.534874 212.784864
-1738.409004 480.931631 213.330466
-1740.236137 480.328387 213.876069
-1742.063270 479.725143 214.421671
-1743.890403 479.121899 214.967273
-1745.717536 478.518655 215.512875
-1747.544669 477.915411 216.058477
-1749.371802 477.312167 216.604080
-1751.198935 476.708923 217.149682
-1753.026068 476.105679 217.695284
-1754.853201 475.502435 218.240886
-1756.680334 474.899191 218.786489
-1758.507467 474.295948 219.332091
-1760.334600 473.692704 219.877693
-1762.161733 473.089460 220.423295
-1763.988866 472.486216 220.968897
-1765.815999 471.882972 221.514500
-1767.643132 471.279728 222.060102
-1769.470265 470.676484 222.605704
-1771.297398 470.073240 223.151306
-1773.124531 469.469996 223.696908
-1774.951664 468.866752 224.242511
-1776.778797 468.263508 224.788113
-1778.605930 467.660265 225.333715
-1780.433063 467.057021 225.879317
-1782.260196 466.453777 226.424920
-1784.087329 465.850533 226.970522
-1785.914462 465.247289 227.516124
-1787.741595 464.644045 228.061726
-1789.568728 464.040801 228.607328
-1791.395861 463.437557 229.152931
-1793.222994 462.834313 229.698533
-1795.050127 462.231069 230.244135
-1796.877260 461.627825 230.789737
-1798.704393 461.024581 231.335339
-1800.531526 460.421338 231.880942
-1802.358659 459.818094 232.426544
-1804.185792 459.214850 232.972146
-1806.012925 458.611606 233.517748
-1807.840058 458.008362 234.063351
-1809.667191 457.405118 234.608953
-1811.494324 456.801874 235.154555
-1813.321457 456.198630 235.700157
-1815.148590 455.595386 236.245759
-1816.975723 454.992142 236.791362
-1818.802856 454.388898 237.336964
-1820.629989 453.785655 237.882566
-1822.457122 453.182411 238.428168
-1824.284255 452.579167 238.973770
-1826.111388 451.975923 239.519373
-1827.938521 451.372679 240.064975
-1829.765654 450.769435 240.610577
-1831.592787 450.166191 241.156179
-1833.419920 449.562947 241.701782
-1835.247053 448.959703 242.247384
-1837.074186 448.356459 242.792986
-1838.901319 447.753215 243.338588
-1840.728452 447.149972 243.884190
-1842.555585 446.546728 244.429793
-1844.382718 445.943484 244.975395
-1846.209851 445.340240 245.520997
-1848.036984 444.736996 246.066599
-1849.864117 444.133752 246.612202
-1851.691250 443.530508 247.157804
-1853.518383 442.927264 247.703406
-1855.345516 442.324020 248.249008
-1857.172649 441.720776 248.794610
-1858.999782 441.117532 249.340213
-1860.826915 440.514288 249.885815
-1862.654048 439.911045 250.431417
-1864.481181 439.307801 250.977019
-1866.308314 438.704557 251.522621
-1868.135447 438.101313 252.068224
-1869.962580 437.498069 252.613826
-1871.789713 436.894825 253.159428
-1873.616846 436.291581 253.705030
-1875.443979 435.688337 254.250633
-1877.271112 435.085093 254.796235
-1879.098245 434.481849 255.341837
-1880.925378 433.878605 255.887439
-1882.752511 433.275362 256.433041
-1884.579644 432.672118 256.978644
-1886.406777 432.068874 257.524246
-1888.233910 431.465630 258.069848
-1890.061043 430.862386 258.615450
-1891.888176 430.259142 259.161052
-1893.715309 429.655898 259.706655
-1895.542442 429.052654 260.252257
-1897.369575 428.449410 260.797859
-1899.196708 427.846166 261.343461
-1901.023841 427.242922 261.889064
-1902.850974 426.639679 262.434666
-1904.678107 426.036435 262.980268
-1906.505240 425.433191 263.525870
-1908.332373 424.829947 264.071472
-1910.159506 424.226703 264.617075
-1911.986639 423.623459 265.162677
-1913.813772 423.020215 265.708279
-1915.640905 422.416971 266.253881
-1917.468038 421.813727 266.799483
-1919.295171 421.210483 267.345086
-1921.122304 420.607239 267.890688
-1922.949437 420.003995 268.436290
-1924.776570 419.400752 268.981892
-1926.603703 418.797508 269.527495
-1928.430836 418.194264 270.073097
-1930.257969 417.591020 270.618699
-1932.085102 416.987776 271.164301
-1933.912235 416.384532 271.709903
-1935.739368 415.781288 272.255506
-1937.566501 415.178044 272.801108
-1939.393634 414.574800 273.346710
-1941.220767 413.971556 273.892312
-1943.047900 413.368312 274.437915
-1944.875033 412.765069 274.983517
-1946.702166 412.161825 275.529119
-1948.529299 411.558581 276.074721
-1950.356432 410.955337 276.620323
-1952.183565 410.352093 277.165926
-1954.010698 409.748849 277.711528
-1955.837831 409.145605 278.257130
-1957.664964 408.542361 278.802732
-1959.492097 407.939117 279.348334
-1961.319230 407.335873 279.893937
-1963.146363 406.732629 280.439539
-1964.973496 406.129386 280.985141
-1966.800629 405.526142 281.530743
-1968.627762 404.922898 282.076346
-1970.454895 404.319654 282.621948
-1972.282028 403.716410 283.167550
-1974.109161 403.113166 283.713152
-1975.936294 402.509922 284.258754
-1977.763427 401.906678 284.804357
-1979.590560 401.303434 285.349959
-1981.417693 400.700190 285.895561
-1983.244826 400.096946 286.441163
-1985.071959 399.493702 286.986765
-1986.899092 398.890459 287.532368
-1988.726225 398.287215 288.077970
-1990.553358 397.683971 288.623572
-1992.380491 397.080727 289.169174
-1994.207624 396.477483 289.714777
-1996.034757 395.874239 290.260379
-1997.861890 395.270995 290.805981
-1999.689023 394.667751 291.351583
-2001.516156 394.064507 291.897185
-2003.343289 393.461263 292.442788
-2005.170422 392.858019 292.988390
-2006.997555 392.254776 293.533992
-2008.824688 391.651532 294.079594
-2010.651821 391.048288 294.625196
-2012.478954 390.445044 295.170799
-2014.306087 389.841800 295.716401
-2016.133220 389.238556 296.262003
-2017.960353 388.635312 296.807605
-2019.787486 388.032068 297.353208
-2021.614619 387.428824 297.898810
-2023.441752 386.825580 298.444412
-2025.268885 386.222336 298.990014
-2027.096018 385.619093 299.535616
-2028.923151 385.015849 300.081219
-2032.000000 384.000000 301.000000
-2032.081982 384.000000 302.998319
-2032.163965 384.000000 304.996638
-2032.245947 384.000000 306.994957
-2032.327929 384.000000 308.993276
-2032.409912 384.000000 310.991595
-2032.491894 384.000000 312.989914
-2032.573876 384.000000 314.988233
-2032.655859 384.000000 316.986552
-2032.737841 384.000000 318.984871
-2032.819823 384.000000 320.983190
-2032.901806 384.000000 322.981509
-2032.983788 384.000000 324.979828
-2033.065770 384.000000 326.978147
-2033.147752 384.000000 328.976466
-2033.229735 384.000000 330.974785
-2033.311717 384.000000 332.973104
-2033.393699 384.000000 334.971423
-2033.475682 384.000000 336.969742
-2033.557664 384.000000 338.968061
-2033.639646 384.000000 340.966380
-2033.721629 384.000000 342.964699
-2033.803611 384.000000 344.963018
-2033.885593 384.000000 346.961337
-2033.967576 384.000000 348.959656
-2034.049558 384.000000 350.957975
-2034.131540 384.000000 352.956294
-2034.213523 384.000000 354.954613
-2034.295505 384.000000 356.952933
-2034.377487 384.000000 358.951252
-2034.459470 384.000000 360.949571
-2034.541452 384.000000 362.947890
-2034.623434 384.000000 364.946209
-2034.705417 384.000000 366.944528
-2034.787399 384.000000 368.942847
-2034.869381 384.000000 370.941166
-2034.951363 384.000000 372.939485
-2035.033346 384.000000 374.937804
-2035.115328 384.000000 376.936123
-2035.197310 384.000000 378.934442
-2035.279293 384.000000 380.932761
-2035.361275 384.000000 382.931080
-2035.443257 384.000000 384.929399
-2035.525240 384.000000 386.927718
-2035.607222 384.000000 388.926037
-2035.689204 384.000000 390.924356
-2035.771187 384.000000 392.922675
-2035.853169 384.000000 394.920994
-2035.935151 384.000000 396.919313
-2036.017134 384.000000 398.917632
-2036.099116 384.000000 400.915951
-2036.181098 384.000000 402.914270
-2036.263081 384.000000 404.912589
-2036.345063 384.000000 406.910908
-2036.427045 384.000000 408.909227
-2036.509028 384.000000 410.907546
-2036.591010 384.000000 412.905865
-2036.672992 384.000000 414.904184
-2036.754974 384.000000 416.902503
-2036.836957 384.000000 418.900822
-2036.918939 384.000000 420.899141
-2037.000921 384.000000 422.897460
-2037.082904 384.000000 424.895779
-2037.164886 384.000000 426.894098
-2037.246868 384.000000 428.892417
-2037.328851 384.000000 430.890736
-2037.410833 384.000000 432.889055
-2037.492815 384.000000 434.887374
-2037.574798 384.000000 436.885693
-2037.656780 384.000000 438.884012
-2037.738762 384.000000 440.882331
-2037.820745 384.000000 442.880650
-2037.902727 384.000000 444.878969
-2037.984709 384.000000 446.877288
-2038.066692 384.000000 448.875607
-2038.148674 384.000000 450.873926
-2038.230656 384.000000 452.872245
-2038.312639 384.000000 454.870564
-2038.394621 384.000000 456.868883
-2038.476603 384.000000 458.867202
-2038.558585 384.000000 460.865521
-2038.640568 384.000000 462.863840
-2038.722550 384.000000 464.862160
-2038.804532 384.000000 466.860479
-2038.886515 384.000000 468.858798
-2038.968497 384.000000 470.857117
-2039.050479 384.000000 472.855436
-2039.132462 384.000000 474.853755
-2039.214444 384.000000 476.852074
-2039.296426 384.000000 478.850393
-2039.378409 384.000000 480.848712
-2039.460391 384.000000 482.847031
-2039.542373 384.000000 484.845350
-2039.624356 384.000000 486.843669
-2039.706338 384.000000 488.841988
-2039.788320 384.000000 490.840307
-2039.870303 384.000000 492.838626
-2040.000000 384.000000 496.000000
-2042.000000 384.000000 496.000000
-2044.000000 384.000000 496.000000
-2046.000000 384.000000 496.000000
-2048.000000 384.000000 496.000000
-2050.000000 384.000000 496.000000
-2052.000000 384.000000 496.000000
-2054.000000 384.000000 496.000000
-2056.000000 384.000000 496.000000
-2058.000000 384.000000 496.000000
-2060.000000 384.000000 496.000000
-2062.000000 384.000000 496.000000
-2064.000000 384.000000 496.000000
-2066.000000 384.000000 496.000000
-2068.000000 384.000000 496.000000
-2070.000000 384.000000 496.000000
-2072.000000 384.000000 496.000000
-2076.000000 384.000000 496.000000
-2076.000000 382.367951 494.843965
-2076.000000 380.735902 493.687931
-2076.000000 379.103853 492.531896
-2076.000000 377.471804 491.375861
-2076.000000 375.839755 490.219827
-2076.000000 374.207706 489.063792
-2076.000000 372.575657 487.907757
-2076.000000 370.943608 486.751723
-2076.000000 369.311559 485.595688
-2076.000000 367.679510 484.439653
-2076.000000 366.047461 483.283619
-2076.000000 364.415412 482.127584
-2076.000000 362.783363 480.971549
-2076.000000 361.151315 479.815514
-2076.000000 359.519266 478.659480
-2076.000000 357.887217 477.503445
-2076.000000 356.255168 476.347410
-2076.000000 354.623119 475.191376
-2076.000000 352.991070 474.035341
-2076.000000 351.359021 472.879306
-2076.000000 349.726972 471.723272
-2076.000000 348.094923 470.567237
-2076.000000 346.462874 469.411202
-2076.000000 344.830825 468.255168
-2076.000000 343.198776 467.099133
-2076.000000 341.566727 465.943098
-2076.000000 339.934678 464.787064
-2076.000000 338.302629 463.631029
-2076.000000 336.670580 462.474994
-2076.000000 335.038531 461.318960
-2076.000000 333.406482 460.162925
-2076.000000 331.774433 459.006890
-2076.000000 330.142384 457.850856
-2076.000000 328.510335 456.694821
-2076.000000 326.878286 455.538786
-2076.000000 325.246237 454.382751
-2076.000000 323.614188 453.226717
-2076.000000 321.982139 452.070682
-2076.000000 320.350090 450.914647
-2076.000000 318.718042 449.758613
-2076.000000 317.085993 448.602578
-2076.000000 315.453944 447.446543
-2076.000000 313.821895 446.290509
-2076.000000 312.189846 445.134474
-2076.000000 310.557797 443.978439
-2076.000000 308.925748 442.822405
-2076.000000 307.293699 441.666370
-2076.000000 305.661650 440.510335
-2076.000000 304.029601 439.354301
-2076.000000 302.397552 438.198266
-2076.000000 300.765503 437.042231
-2076.000000 299.133454 435.886197
-2076.000000 297.501405 434.730162
-2076.000000 295.869356 433.574127
-2076.000000 294.237307 432.418093
-2076.000000 292.605258 431.262058
-2076.000000 290.973209 430.106023
-2076.000000 289.341160 428.949988
-2076.000000 287.709111 427.793954
-2076.000000 286.077062 426.637919
-2076.000000 284.445013 425.481884
-2076.000000 282.812964 424.325850
-2076.000000 281.180915 423.169815
-2076.000000 279.548866 422.013780
-2076.000000 277.916817 420.857746
-2076.000000 276.284768 419.701711
-2076.000000 274.652720 418.545676
-2076.000000 273.020671 417.389642
-2076.000000 271.388622 416.233607
-2076.000000 269.756573 415.077572
-2076.000000 268.124524 413.921538
-2076.000000 266.492475 412.765503
-2076.000000 264.860426 411.609468
-2076.000000 263.228377 410.453434
-2076.000000 261.596328 409.297399
-2076.000000 259.964279 408.141364
-2076.000000 258.332230 406.985330
-2076.000000 256.700181 405.829295
-2076.000000 255.068132 404.673260
-2076.000000 253.436083 403.517225
-2076.000000 251.804034 402.361191
-2076.000000 250.171985 401.205156
-2076.000000 248.539936 400.049121
-2076.000000 246.907887 398.893087
-2076.000000 245.275838 397.737052
-2076.000000 243.643789 396.581017
-2076.000000 242.011740 395.424983
-2076.000000 240.379691 394.268948
-2076.000000 238.747642 393.112913
-2076.000000 237.115593 391.956879
-2076.000000 235.483544 390.800844
-2076.000000 233.851495 389.644809
-2076.000000 232.219447 388.488775
-2076.000000 230.587398 387.332740
-2076.000000 228.955349 386.176705
-2076.000000 227.323300 385.020671
-2076.000000 225.691251 383.864636
-2076.000000 224.059202 382.708601
-2076.000000 222.427153 381.552567
-2076.000000 220.795104 380.396532
-2076.000000 219.163055 379.240497
-2076.000000 217.531006 378.084462
-2076.000000 215.898957 376.928428
-2076.000000 214.266908 375.772393
-2076.000000 212.634859 374.616358
-2076.000000 211.002810 373.460324
-2076.000000 209.370761 372.304289
-2076.000000 207.738712 371.148254
-2076.000000 206.106663 369.992220
-2076.000000 204.474614 368.836185
-2076.000000 202.842565 367.680150
-2076.000000 201.210516 366.524116
-2076.000000 199.578467 365.368081
-2076.000000 197.946418 364.212046
-2076.000000 196.314369 363.056012
-2076.000000 194.682320 361.899977
-2076.000000 193.050271 360.743942
-2076.000000 191.418222 359.587908
-2076.000000 189.786173 358.431873
-2076.000000 188.154125 357.275838
-2076.000000 186.522076 356.119804
-2076.000000 184.890027 354.963769
-2076.000000 183.257978 353.807734
-2076.000000 181.625929 352.651699
-2076.000000 179.993880 351.495665
-2076.000000 178.361831 350.339630
-2076.000000 176.729782 349.183595
-2076.000000 175.097733 348.027561
-2076.000000 173.465684 346.871526
-2076.000000 171.833635 345.715491
-2076.000000 170.201586 344.559457
-2076.000000 168.569537 343.403422
-2076.000000 166.937488 342.247387
-2076.000000 165.305439 341.091353
-2076.000000 163.673390 339.935318
-2076.000000 162.041341 338.779283
-2076.000000 160.409292 337.623249
-2076.000000 158.777243 336.467214
-2076.000000 157.145194 335.311179
-2076.000000 155.513145 334.155145
-2076.000000 153.881096 332.999110
-2076.000000 152.249047 331.843075
-2076.000000 150.616998 330.687041
-2076.000000 148.984949 329.531006
-2076.000000 147.352900 328.374971
-2076.000000 145.720852 327.218936
-2076.000000 144.088803 326.062902
-2076.000000 142.456754 324.906867
-2076.000000 140.824705 323.750832
-2076.000000 139.192656 322.594798
-2076.000000 137.560607 321.438763
-2076.000000 135.928558 320.282728
-2076.000000 134.296509 319.126694
-2076.000000 132.664460 317.970659
-2076.000000 131.032411 316.814624
-2076.000000 129.400362 315.658590
-2076.000000 127.768313 314.502555
-2076.000000 126.136264 313.346520
-2076.000000 124.504215 312.190486
-2076.000000 122.872166 311.034451
-2076.000000 121.240117 309.878416
-2076.000000 119.608068 308.722382
-2076.000000 117.976019 307.566347
-2076.000000 116.343970 306.410312
-2076.000000 114.711921 305.254278
-2076.000000 113.079872 304.098243
-2076.000000 111.447823 302.942208
-2076.000000 109.815774 301.786173
-2076.000000 108.183725 300.630139
-2076.000000 106.551676 299.474104
-2076.000000 104.919627 298.318069
-2076.000000 103.287579 297.162035
-2076.000000 101.655530 296.006000
-2076.000000 100.023481 294.849965
-2076.000000 98.391432 293.693931
-2076.000000 96.759383 292.537896
-2076.000000 95.127334 291.381861
-2076.000000 93.495285 290.225827
-2076.000000 91.863236 289.069792
-2076.000000 90.231187 287.913757
-2076.000000 88.599138 286.757723
-2076.000000 86.967089 285.601688
-2076.000000 85.335040 284.445653
-2076.000000 83.702991 283.289619
-2076.000000 82.070942 282.133584
-2076.000000 80.438893 280.977549
-2076.000000 78.806844 279.821515
-2076.000000 77.174795 278.665480
-2076.000000 75.542746 277.509445
-2076.000000 73.910697 276.353411
-2076.000000 72.278648 275.197376
-2076.000000 70.646599 274.041341
-2076.000000 69.014550 272.885306
-2076.000000 67.382501 271.729272
-2076.000000 65.750452 270.573237
-2076.000000 64.118403 269.417202
-2076.000000 62.486354 268.261168
-2076.000000 60.854305 267.105133
-2076.000000 59.222257 265.949098
-2076.000000 57.590208 264.793064
-2076.000000 55.958159 263.637029
-2076.000000 54.326110 262.480994
-2076.000000 52.694061 261.324960
-2076.000000 51.062012 260.168925
-2076.000000 49.429963 259.012890
-2076.000000 47.797914 257.856856
-2076.000000 46.165865 256.700821
-2076.000000 44.533816 255.544786
-2076.000000 42.901767 254.388752
-2076.000000 41.269718 253.232717
-2076.000000 39.637669 252.076682
-2076.000000 38.005620 250.920648
-2076.000000 36.373571 249.764613
-2076.000000 34.741522 248.608578
-2076.000000 33.109473 247.452543
-2076.000000 31.477424 246.296509
-2076.000000 29.845375 245.140474
-2076.000000 28.213326 243.984439
-2076.000000 26.581277 242.828405
-2076.000000 24.949228 241.672370
-2076.000000 23.317179 240.516335
-2076.000000 21.685130 239.360301
-2076.000000 20.053081 238.204266
-2076.000000 18.421032 237.048231
-2076.000000 16.788984 235.892197
-2076.000000 15.156935 234.736162
-2076.000000 13.524886 233.580127
-2076.000000 11.892837 232.424093
-2076.000000 10.260788 231.268058
-2076.000000 8.628739 230.112023
-2076.000000 6.996690 228.955989
-2076.000000 5.364641 227.799954
-2076.000000 3.732592 226.643919
-2076.000000 2.100543 225.487885
-2076.000000 0.000000 224.000000
-2076.000000 -1.423933 222.595573
-2076.000000 -2.847866 221.191146
-2076.000000 -4.271799 219.786719
-2076.000000 -5.695732 218.382292
-2076.000000 -7.119664 216.977865
-2076.000000 -8.543597 215.573438
-2076.000000 -9.967530 214.169011
-2076.000000 -11.391463 212.764584
-2076.000000 -12.815396 211.360157
-2076.000000 -14.239329 209.955730
-2076.000000 -15.663262 208.551303
-2076.000000 -17.087195 207.146876
-2076.000000 -18.511128 205.742449
-2076.000000 -19.935061 204.338022
-2076.000000 -21.358993 202.933595
-2076.000000 -22.782926 201.529169
-2076.000000 -24.206859 200.124742
-2076.000000 -25.630792 198.720315
-2076.000000 -27.054725 197.315888
-2076.000000 -28.478658 195.911461
-2076.000000 -29.902591 194.507034
-2076.000000 -31.326524 193.102607
-2076.000000 -32.750457 191.698180
-2076.000000 -34.174390 190.293753
-2076.000000 -35.598322 188.889326
-2076.000000 -37.022255 187.484899
-2076.000000 -38.446188 186.080472
-2076.000000 -39.870121 184.676045
-2076.000000 -41.294054 183.271618
-2076.000000 -42.717987 181.867191
-2076.000000 -44.141920 180.462764
-2076.000000 -45.565853 179.058337
-2076.000000 -46.989786 177.653910
-2076.000000 -48.413718 176.249483
-2076.000000 -49.837651 174.845056
-2076.000000 -51.261584 173.440629
-2076.000000 -52.685517 172.036202
-2076.000000 -54.109450 170.631775
-2076.000000 -55.533383 169.227348
-2076.000000 -56.957316 167.822921
-2076.000000 -58.381249 166.418494
-2076.000000 -59.805182 165.014067
-2076.000000 -61.229115 163.609640
-2076.000000 -62.653047 162.205213
-2076.000000 -64.076980 160.800786
-2076.000000 -65.500913 159.396360
-2076.000000 -66.924846 157.991933
-2076.000000 -68.348779 156.587506
-2076.000000 -69.772712 155.183079
-2076.000000 -71.196645 153.778652
-2076.000000 -72.620578 152.374225
-2076.000000 -74.044511 150.969798
-2076.000000 -75.468444 149.565371
-2076.000000 -76.892376 148.160944
-2076.000000 -78.316309 146.756517
-2076.000000 -79.740242 145.352090
-2076.000000 -81.164175 143.947663
-2076.000000 -82.588108 142.543236
-2076.000000 -84.012041 141.138809
-2076.000000 -85.435974 139.734382
-2076.000000 -86.859907 138.329955
-2076.000000 -88.283840 136.925528
-2076.000000 -89.707773 135.521101
-2076.000000 -91.131705 134.116674
-2076.000000 -92.555638 132.712247
-2076.000000 -93.979571 131.307820
-2076.000000 -95.403504 129.903393
-2076.000000 -96.827437 128.498966
-2076.000000 -98.251370 127.094539
-2076.000000 -99.675303 125.690112
-2076.000000 -101.099236 124.285685
-2076.000000 -102.523169 122.881258
-2076.000000 -103.947101 121.476831
-2076.000000 -105.371034 120.072404
-2076.000000 -106.794967 118.667977
-2076.000000 -108.218900 117.263551
-2076.000000 -109.642833 115.859124
-2076.000000 -111.066766 114.454697
-2076.000000 -112.490699 113.050270
-2076.000000 -113.914632 111.645843
-2076.000000 -115.338565 110.241416
-2076.000000 -116.762498 108.836989
-2076.000000 -118.186430 107.432562
-2076.000000 -119.610363 106.028135
-2076.000000 -121.034296 104.623708
-2076.000000 -122.458229 103.219281
-2076.000000 -123.882162 101.814854
-2076.000000 -125.306095 100.410427
-2076.000000 -126.730028 99.006000
-2076.000000 -128.153961 97.601573
-2076.000000 -129.577894 96.197146
-2076.000000 -131.001827 94.792719
-2076.000000 -132.425759 93.388292
-2076.000000 -133.849692 91.983865
-2076.000000 -135.273625 90.579438
-2076.000000 -136.697558 89.175011
-2076.000000 -138.121491 87.770584
-2076.000000 -139.545424 86.366157
-2076.000000 -140.969357 84.961730
-2076.000000 -142.393290 83.557303
-2076.000000 -143.817223 82.152876
-2076.000000 -145.241155 80.748449
-2076.000000 -146.665088 79.344022
-2076.000000 -148.089021 77.939595
-2076.000000 -149.512954 76.535168
-2076.000000 -150.936887 75.130742
-2076.000000 -152.360820 73.726315
-2076.000000 -153.784753 72.321888
-2076.000000 -155.208686 70.917461
-2076.000000 -156.632619 69.513034
-2076.000000 -158.056552 68.108607
-2076.000000 -159.480484 66.704180
-2076.000000 -160.904417 65.299753
-2076.000000 -162.328350 63.895326
-2076.000000 -163.752283 62.490899
-2076.000000 -165.176216 61.086472
-2076.000000 -166.600149 59.682045
-2076.000000 -168.024082 58.277618
-2076.000000 -169.448015 56.873191
-2076.000000 -170.871948 55.468764
-2076.000000 -172.295881 54.064337
-2076.000000 -173.719813 52.659910
-2076.000000 -175.143746 51.255483
-2076.000000 -176.567679 49.851056
-2076.000000 -177.991612 48.446629
-2076.000000 -179.415545 47.042202
-2076.000000 -180.839478 45.637775
-2076.000000 -182.263411 44.233348
-2076.000000 -183.687344 42.828921
-2076.000000 -185.111277 41.424494
-2076.000000 -186.535209 40.020067
-2076.000000 -187.959142 38.615640
-2076.000000 -189.383075 37.211213
-2076.000000 -190.807008 35.806786
-2076.000000 -192.230941 34.402359
-2076.000000 -193.654874 32.997933
-2076.000000 -195.078807 31.593506
-2076.000000 -196.502740 30.189079
-2076.000000 -197.926673 28.784652
-2076.000000 -199.350606 27.380225
-2076.000000 -200.774538 25.975798
-2076.000000 -202.198471 24.571371
-2076.000000 -203.622404 23.166944
-2076.000000 -205.046337 21.762517
-2076.000000 -206.470270 20.358090
-2076.000000 -207.894203 18.953663
-2076.000000 -209.318136 17.549236
-2076.000000 -210.742069 16.144809
-2076.000000 -212.166002 14.740382
-2076.000000 -213.589935 13.335955
-2076.000000 -215.013867 11.931528
-2076.000000 -216.437800 10.527101
-2076.000000 -217.861733 9.122674
-2076.000000 -219.285666 7.718247
-2076.000000 -220.709599 6.313820
-2076.000000 -222.133532 4.909393
-2076.000000 -223.557465 3.504966
-2076.000000 -224.981398 2.100539
-2076.000000 -226.405331 0.696112
-2076.000000 -227.829264 -0.708315
-2076.000000 -229.253196 -2.112742
-2076.000000 -230.677129 -3.517169
-2076.000000 -232.101062 -4.921596
-2076.000000 -233.524995 -6.326023
-2076.000000 -234.948928 -7.730450
-2076.000000 -236.372861 -9.134876
-2076.000000 -237.796794 -10.539303
-2076.000000 -239.220727 -11.943730
-2076.000000 -240.644660 -13.348157
-2076.000000 -242.068592 -14.752584
-2076.000000 -243.492525 -16.157011
-2076.000000 -244.916458 -17.561438
-2076.000000 -246.340391 -18.965865
-2076.000000 -247.764324 -20.370292
-2076.000000 -249.188257 -21.774719
-2076.000000 -250.612190 -23.179146
-2076.000000 -252.036123 -24.583573
-2076.000000 -253.460056 -25.988000
-2076.000000 -254.883989 -27.392427
-2076.000000 -256.307921 -28.796854
-2076.000000 -257.731854 -30.201281
-2076.000000 -259.155787 -31.605708
-2076.000000 -260.579720 -33.010135
-2076.000000 -262.003653 -34.414562
-2076.000000 -263.427586 -35.818989
-2076.000000 -264.851519 -37.223416
-2076.000000 -266.275452 -38.627843
-2076.000000 -267.699385 -40.032270
-2076.000000 -269.123318 -41.436697
-2076.000000 -270.547250 -42.841124
-2076.000000 -271.971183 -44.245551
-2076.000000 -273.395116 -45.649978
-2076.000000 -274.819049 -47.054405
-2076.000000 -276.242982 -48.458832
-2076.000000 -277.666915 -49.863259
-2076.000000 -279.090848 -51.267685
-2076.000000 -280.514781 -52.672112
-2076.000000 -281.938714 -54.076539
-2076.000000 -283.362646 -55.480966
-2076.000000 -284.786579 -56.885393
-2076.000000 -286.210512 -58.289820
-2076.000000 -287.634445 -59.694247
-2076.000000 -289.058378 -61.098674
-2076.000000 -290.482311 -62.503101
-2076.000000 -291.906244 -63.907528
-2076.000000 -293.330177 -65.311955
-2076.000000 -294.754110 -66.716382
-2076.000000 -296.178043 -68.120809
-2076.000000 -297.601975 -69.525236
-2076.000000 -299.025908 -70.929663
-2076.000000 -300.449841 -72.334090
-2076.000000 -301.873774 -73.738517
-2076.000000 -303.297707 -75.142944
-2076.000000 -304.721640 -76.547371
-2076.000000 -306.145573 -77.951798
-2076.000000 -307.569506 -79.356225
-2076.000000 -308.993439 -80.760652
-2076.000000 -310.417372 -82.165079
-2076.000000 -311.841304 -83.569506
-2076.000000 -313.265237 -84.973933
-2076.000000 -314.689170 -86.378360
-2076.000000 -316.113103 -87.782787
-2076.000000 -317.537036 -89.187214
-2076.000000 -318.960969 -90.591641
-2076.000000 -320.384902 -91.996068
-2076.000000 -321.808835 -93.400494
-2076.000000 -323.232768 -94.804921
-2076.000000 -324.656700 -96.209348
-2076.000000 -326.080633 -97.613775
-2076.000000 -327.504566 -99.018202
-2076.000000 -328.928499 -100.422629
-2076.000000 -330.352432 -101.827056
-2076.000000 -331.776365 -103.231483
-2076.000000 -333.200298 -104.635910
-2076.000000 -334.624231 -106.040337
-2076.000000 -336.048164 -107.444764
-2076.000000 -337.472097 -108.849191
-2076.000000 -338.896029 -110.253618
-2076.000000 -340.319962 -111.658045
-2076.000000 -341.743895 -113.062472
-2076.000000 -343.167828 -114.466899
-2076.000000 -344.591761 -115.871326
-2076.000000 -346.015694 -117.275753
-2076.000000 -347.439627 -118.680180
-2076.000000 -348.863560 -120.084607
-2076.000000 -350.287493 -121.489034
-2076.000000 -351.711426 -122.893461
-2076.000000 -353.135358 -124.297888
-2076.000000 -354.559291 -125.702315
-2076.000000 -355.983224 -127.106742
-2076.000000 -357.407157 -128.511169
-2076.000000 -358.831090 -129.915596
-2076.000000 -360.255023 -131.320023
-2076.000000 -361.678956 -132.724450
-2076.000000 -363.102889 -134.128877
-2076.000000 -364.526822 -135.533304
-2076.000000 -365.950755 -136.937730
-2076.000000 -367.374687 -138.342157
-2076.000000 -368.798620 -139.746584
-2076.000000 -370.222553 -141.151011
-2076.000000 -371.646486 -142.555438
-2076.000000 -373.070419 -143.959865
-2076.000000 -374.494352 -145.364292
-2076.000000 -375.918285 -146.768719
-2076.000000 -377.342218 -148.173146
-2076.000000 -378.766151 -149.577573
-2076.000000 -380.190083 -150.982000
-2076.000000 -381.614016 -152.386427
-2076.000000 -383.037949 -153.790854
-2076.000000 -384.461882 -155.195281
-2076.000000 -385.885815 -156.599708
-2076.000000 -387.309748 -158.004135
-2076.000000 -388.733681 -159.408562
-2076.000000 -390.157614 -160.812989
-2076.000000 -391.581547 -162.217416
-2076.000000 -393.005480 -163.621843
-2076.000000 -394.429412 -165.026270
-2076.000000 -395.853345 -166.430697
-2076.000000 -397.277278 -167.835124
-2076.000000 -398.701211 -169.239551
-2076.000000 -400.125144 -170.643978
-2076.000000 -401.549077 -172.048405
-2076.000000 -402.973010 -173.452832
-2076.000000 -404.396943 -174.857259
-2076.000000 -405.820876 -176.261686
-2076.000000 -407.244809 -177.666113
-2076.000000 -408.668741 -179.070539
-2076.000000 -410.092674 -180.474966
-2076.000000 -411.516607 -181.879393
-2076.000000 -412.940540 -183.283820
-2076.000000 -414.364473 -184.688247
-2076.000000 -415.788406 -186.092674
-2076.000000 -417.212339 -187.497101
-2076.000000 -418.636272 -188.901528
-2076.000000 -420.060205 -190.305955
-2076.000000 -421.484137 -191.710382
-2076.000000 -422.908070 -193.114809
-2076.000000 -424.332003 -194.519236
-2076.000000 -425.755936 -195.923663
-2076.000000 -427.179869 -197.328090
-2076.000000 -428.603802 -198.732517
-2076.000000 -430.027735 -200.136944
-2076.000000 -431.451668 -201.541371
-2076.000000 -432.875601 -202.945798
-2076.000000 -434.299534 -204.350225
-2076.000000 -435.723466 -205.754652
-2076.000000 -437.147399 -207.159079
-2076.000000 -438.571332 -208.563506
-2076.000000 -439.995265 -209.967933
-2076.000000 -441.419198 -211.372360
-2076.000000 -442.843131 -212.776787
-2076.000000 -444.267064 -214.181214
-2076.000000 -445.690997 -215.585641
-2076.000000 -447.114930 -216.990068
-2076.000000 -448.538863 -218.394495
-2076.000000 -449.962795 -219.798922
-2076.000000 -451.386728 -221.203348
-2076.000000 -452.810661 -222.607775
-2076.000000 -454.234594 -224.012202
-2076.000000 -455.658527 -225.416629
-2076.000000 -457.082460 -226.821056
-2076.000000 -458.506393 -228.225483
-2076.000000 -459.930326 -229.629910
-2076.000000 -461.354259 -231.034337
-2076.000000 -462.778191 -232.438764
-2076.000000 -464.202124 -233.843191
-2076.000000 -465.626057 -235.247618
-2076.000000 -467.049990 -236.652045
-2076.000000 -468.473923 -238.056472
-2076.000000 -469.897856 -239.460899
-2076.000000 -471.321789 -240.865326
-2076.000000 -472.745722 -242.269753
-2076.000000 -474.169655 -243.674180
-2076.000000 -475.593588 -245.078607
-2076.000000 -477.017520 -246.483034
-2076.000000 -478.441453 -247.887461
-2076.000000 -479.865386 -249.291888
-2076.000000 -481.289319 -250.696315
-2076.000000 -482.713252 -252.100742
-2076.000000 -484.137185 -253.505169
-2076.000000 -485.561118 -254.909596
-2076.000000 -486.985051 -256.314023
-2076.000000 -488.408984 -257.718450
-2076.000000 -489.832917 -259.122877
-2076.000000 -491.256849 -260.527304
-2076.000000 -492.680782 -261.931731
-2076.000000 -494.104715 -263.336157
-2076.000000 -495.528648 -264.740584
-2076.000000 -496.952581 -266.145011
-2076.000000 -498.376514 -267.549438
-2076.000000 -499.800447 -268.953865
-2076.000000 -501.224380 -270.358292
-2076.000000 -502.648313 -271.762719
-2076.000000 -504.072246 -273.167146
-2076.000000 -505.496178 -274.571573
-2076.000000 -506.920111 -275.976000
-2076.000000 -508.344044 -277.380427
-2076.000000 -509.767977 -278.784854
-2076.000000 -511.191910 -280.189281
-2076.000000 -512.615843 -281.593708
-2076.000000 -514.039776 -282.998135
-2076.000000 -515.463709 -284.402562
-2076.000000 -516.887642 -285.806989
-2076.000000 -518.311574 -287.211416
-2076.000000 -519.735507 -288.615843
-2076.000000 -521.159440 -290.020270
-2076.000000 -522.583373 -291.424697
-2076.000000 -524.007306 -292.829124
-2076.000000 -525.431239 -294.233551
-2076.000000 -526.855172 -295.637978
-2076.000000 -528.279105 -297.042405
-2076.000000 -529.703038 -298.446832
-2076.000000 -531.126971 -299.851259
-2076.000000 -532.550903 -301.255686
-2076.000000 -533.974836 -302.660113
-2076.000000 -535.398769 -304.064540
-2076.000000 -536.822702 -305.468966
-2076.000000 -538.246635 -306.873393
-2076.000000 -539.670568 -308.277820
-2076.000000 -541.094501 -309.682247
-2076.000000 -542.518434 -311.086674
-2076.000000 -543.942367 -312.491101
-2076.000000 -545.366300 -313.895528
-2076.000000 -546.790232 -315.299955
-2076.000000 -548.214165 -316.704382
-2076.000000 -549.638098 -318.108809
-2076.000000 -551.062031 -319.513236
-2076.000000 -552.485964 -320.917663
-2076.000000 -553.909897 -322.322090
-2076.000000 -555.333830 -323.726517
-2076.000000 -556.757763 -325.130944
-2076.000000 -558.181696 -326.535371
-2076.000000 -559.605628 -327.939798
-2076.000000 -561.029561 -329.344225
-2076.000000 -562.453494 -330.748652
-2076.000000 -563.877427 -332.153079
-2076.000000 -565.301360 -333.557506
-2076.000000 -566.725293 -334.961933
-2076.000000 -568.149226 -336.366360
-2076.000000 -569.573159 -337.770787
-2076.000000 -570.997092 -339.175214
-2076.000000 -572.421025 -340.579641
-2076.000000 -573.844957 -341.984068
-2076.000000 -575.268890 -343.388495
-2076.000000 -576.692823 -344.792922
-2076.000000 -578.116756 -346.197349
-2076.000000 -579.540689 -347.601775
-2076.000000 -580.964622 -349.006202
-2076.000000 -582.388555 -350.410629
-2076.000000 -584.000000 -352.000000
-2076.000000 -585.831738 -352.802954
-2076.000000 -587.663477 -353.605908
-2076.000000 -589.495215 -354.408861
-2076.000000 -591.326953 -355.211815
-2076.000000 -593.158692 -356.014769
-2076.000000 -594.990430 -356.817723
